# .PCD v0.7 - Point Cloud Data file format
VERSION 0.7
FIELDS x y z intensity
SIZE 4 4 4 4
TYPE F F F F
COUNT 1 1 1 1
WIDTH 1364
HEIGHT 1
VIEWPOINT 0 0 0 1 0 0 0
POINTS 1364
DATA ascii
-1.3800607 -5.7498512 -0.63824433 0
1.0641685 -5.7461901 -0.65714705 0
1.1185503 -5.7150526 -0.66657037 0
1.308352 -5.7173681 -0.61072361 0
2.0865865 -5.7069373 -0.63852513 0
2.1245556 -5.705719 -0.62760508 0
2.2661834 -5.7094746 -0.62226051 0
2.3090458 -5.7112393 -0.61920261 0
2.4489264 -5.7088428 -0.6526404 0
2.6057553 -5.7126007 -0.64540541 0
2.7701681 -5.7100382 -0.65960091 0
3.0581686 -5.7305551 -0.62714267 0
3.1910121 -5.7040319 -0.65404034 0
3.2035327 -5.7117758 -0.64522195 0
3.3663507 -5.7178774 -0.64095169 0
3.5425687 -5.7062078 -0.64728022 0
3.6268682 -5.7298489 -0.6155073 0
3.7520082 -5.7021637 -0.63869506 0
4.1833563 -5.7050524 -0.60244977 0
4.2688637 -5.76091 -0.61144787 0
-7.8402553 -5.6147718 -0.67875862 0
-6.7801251 -5.6994028 -0.65377289 0
-6.009892 -5.6554222 -0.62986916 0
-5.9914289 -5.6405678 -0.64858788 0
-5.531148 -5.6670446 -0.64756072 0
-5.2449408 -5.6611881 -0.69419336 0
-5.0659523 -5.6660194 -0.65705687 0
-4.9483728 -5.6682224 -0.61273575 0
-4.7549419 -5.6673002 -0.69154882 0
-4.560688 -5.652781 -0.68262959 0
-4.3585658 -5.6847968 -0.6668039 0
-4.2261248 -5.6734324 -0.64955896 0
-4.1759567 -5.6813169 -0.66634125 0
-4.0463362 -5.6731834 -0.67897093 0
-3.955864 -5.6636682 -0.67639971 0
-3.8312356 -5.6564732 -0.66250217 0
-3.7542484 -5.6565471 -0.67409849 0
-3.6122804 -5.6617632 -0.63161379 0
-3.3205411 -5.6939673 -0.67570323 0
-3.1522737 -5.6806612 -0.61979544 0
-3.0377192 -5.6500854 -0.62658775 0
-2.9710708 -5.6717882 -0.64816439 0
-2.8643246 -5.6798162 -0.64931893 0
-2.4392929 -5.6562843 -0.64488173 0
-2.0692496 -5.6842394 -0.63404977 0
-1.3403931 -5.6156197 -0.63470161 0
-1.2817949 -5.6316051 -0.65812361 0
-0.57454014 -5.6868544 -0.60000074 0
-0.46917629 -5.6393881 -0.62608516 0
-0.27602291 -5.6278825 -0.64172727 0
1.6701102 -5.6724858 -0.66186053 0
1.8216887 -5.6897225 -0.64927322 0
1.9514997 -5.6446543 -0.62313515 0
2.2760577 -5.6855125 -0.65804625 0
2.450578 -5.6848903 -0.65493572 0
2.5139019 -5.6933689 -0.63505822 0
2.6043606 -5.6926455 -0.65317059 0
2.7566252 -5.6868916 -0.64325118 0
2.8004701 -5.6829438 -0.65836769 0
3.1127634 -5.6855125 -0.65285552 0
3.2891965 -5.6692138 -0.6072731 0
3.3279362 -5.6972542 -0.61539674 0
3.6512623 -5.6638136 -0.65042138 0
3.848455 -5.6904659 -0.62806892 0
3.9322186 -5.6789565 -0.62572312 0
4.2867413 -5.670661 -0.63242531 0
6.1620035 -5.6963091 -0.62637031 0
6.2873144 -5.6084394 -0.62515229 0
7.2186384 -5.6652565 -0.62640989 0
-3.0080702 -5.5699511 -0.6758095 0
-2.1020555 -5.555841 -0.65770191 0
-1.3705909 -5.591188 -0.65817875 0
-0.43253279 -5.5193734 -0.60724634 0
-0.21026957 -5.5043216 -0.63529837 0
1.4168855 -5.5692749 -0.62144113 0
2.365346 -5.5718036 -0.65537846 0
2.6718225 -5.5632973 -0.65673554 0
3.209873 -5.5548 -0.6522572 0
4.1510906 -5.5038519 -0.64124501 0
4.2320213 -5.5898142 -0.63655496 0
-3.0178266 -5.4355984 -0.63864279 0
-2.2364495 -5.4624443 -0.65486568 0
-2.0416255 -5.4540496 -0.66227233 0
-1.2878346 -5.4705973 -0.63546205 0
-0.32344687 -5.4639549 -0.62988055 0
0.37906289 -5.4932518 -0.63073969 0
1.9591532 -5.4915948 -0.66103429 0
3.9689186 -5.406054 -0.64347178 0
6.144258 -5.4614 -0.62839597 0
7.4016733 -5.4961281 -0.62277508 0
8.4582901 -5.4527855 -0.62379527 0
-7.18752 -5.3922796 -0.64787579 0
-3.0107715 -5.31669 -0.67581153 0
-1.7649217 -5.3273983 -0.63708836 0
-0.3619225 -5.35392 -0.63108695 0
-0.29887867 -5.303638 -0.66193205 0
0.64105868 -5.3903465 -0.65610582 0
6.8460789 -5.3204837 -0.61890179 0
8.9738293 -5.3667278 -0.60055935 0
-8.2564135 -5.2974768 -0.67678994 0
-1.278146 -5.2379522 -0.62726414 0
-0.26397529 -5.2264886 -0.62523323 0
5.8736715 -5.2019191 -0.6298154 0
-9.001462 -5.1170053 -0.66902173 0
-6.0333762 -5.1557627 -0.67046571 0
4.8038549 -5.1254869 -0.62137675 0
-7.8579435 -5.0276761 -0.6434148 0
-3.0182695 -5.0092487 -0.62858438 0
-2.6629596 -5.0620089 -0.65629005 0
-1.930136 -5.0797181 -0.67809302 0
-1.3026481 -5.0625191 -0.61319721 0
-1.2534369 -5.0286951 -0.63027394 0
-1.1416049 -5.056078 -0.62395459 0
-0.541996 -5.0785975 -0.61867714 0
-0.44998607 -5.0311432 -0.64611763 0
-0.28783083 -5.042017 -0.62627494 0
2.8901925 -5.0276814 -0.64897811 0
-8.9237843 -4.9350939 -0.67360389 0
-1.2065182 -4.9803138 -0.65212834 0
-0.65117073 -4.9791446 -0.61327851 0
-0.52264071 -4.9509344 -0.62603152 0
-0.4519484 -4.9807754 -0.62602639 0
3.723834 -4.9363804 -0.64399564 0
5.9198713 -4.9649615 -0.64048511 0
6.9331284 -4.9516892 -0.62037611 0
-3.0197201 -4.8140297 -0.60868168 0
-2.9289756 -4.8510609 -0.65644914 0
-2.889122 -4.8575234 -0.65936768 0
-1.1319249 -4.8881741 -0.63265878 0
-1.0442801 -4.8823695 -0.68101066 0
-0.92495108 -4.8743572 -0.65625721 0
-0.8215993 -4.8842077 -0.6286853 0
-0.74150544 -4.8832307 -0.66839242 0
-0.69832307 -4.8932667 -0.67760968 0
-9.0384731 -4.7296395 -0.63572961 0
-7.9997168 -4.7919006 -0.64365101 0
-6.0155735 -4.7820144 -0.67437404 0
-5.9637127 -4.729238 -0.63281322 0
-3.0284626 -4.7243538 -0.63199449 0
-2.8189459 -4.7929811 -0.66460848 0
-0.2018407 -4.7657771 -0.63982427 0
2.0828629 -4.7446823 -0.64332116 0
3.1986566 -4.7498212 -0.64863712 0
3.3092268 -4.7190914 -0.64397287 0
-8.0835285 -4.6309705 -0.67450833 0
-5.9596863 -4.6744452 -0.63605863 0
-5.7696905 -4.6824055 -0.64218462 0
-4.9671488 -4.6893129 -0.61731738 0
-4.8455768 -4.679965 -0.67582387 0
-4.4711747 -4.6581202 -0.67904001 0
-4.3660421 -4.6885309 -0.60321909 0
-4.0327497 -4.6980429 -0.65519452 0
-3.4912329 -4.6682415 -0.61491859 0
-3.3276863 -4.6994891 -0.63974035 0
-3.1298184 -4.6811209 -0.61092317 0
-3.0608945 -4.681571 -0.62915987 0
-1.9402101 -4.6114578 -0.65584886 0
-1.0216415 -4.6724639 -0.64925325 0
0.62292957 -4.6482525 -0.62027204 0
2.4066267 -4.6172729 -0.64910811 0
3.5381699 -4.6100073 -0.63857567 0
6.0848446 -4.6592283 -0.62992269 0
-5.9086604 -4.5325751 -0.69311345 0
-4.5723076 -4.5873942 -0.68328393 0
-3.1676321 -4.5650229 -0.6791755 0
1.2911985 -4.5342207 -0.64613801 0
-5.8062811 -4.4716148 -0.68976313 0
-0.14093709 -4.4135122 -0.66665196 0
2.0070376 -4.4099903 -0.65438443 0
3.6030364 -4.4999485 -0.64520234 0
-1.2204499 -4.3633652 -0.67361414 0
7.4783664 -4.3177524 -0.60198456 0
-8.9937229 -4.2770643 -0.68444234 0
-2.1229386 -4.2105331 -0.6756444 0
-0.20210254 -4.2317572 -0.6400544 0
8.3227816 -4.2068868 -0.61059755 0
8.5910778 -4.2388582 -0.61544818 0
-8.631319 -4.108614 -0.66787231 0
-0.95848894 -4.1968002 -0.64764792 0
3.2270918 -4.1700559 -0.64143133 0
8.0058737 -4.1600866 -0.62148786 0
-8.7532806 -4.0636845 -0.69653773 0
-1.6057143 -4.0207815 -0.67805403 0
-8.9921474 -3.9339082 -0.67683691 0
-5.7186012 -3.9112477 -0.69705284 0
-0.73599863 -3.9519229 -0.67493737 0
-0.65912628 -3.9364939 -0.6460346 0
5.6893492 -3.9610784 -0.6280992 0
6.4789343 -3.901576 -0.63619912 0
8.8493547 -3.9667683 -0.61189497 0
-9.0070515 -3.8932271 -0.67921114 0
-8.9982414 -3.87817 -0.61481524 0
-2.0352261 -3.822454 -0.68171573 0
-0.20822048 -3.8304069 -0.67100811 0
4.8983507 -3.8695574 -0.61973906 0
8.3473415 -3.8727531 -0.61647594 0
-7.2165504 -3.7273989 -0.69979906 0
-6.1855817 -3.7538507 -0.69427729 0
-0.16774654 -3.7733846 -0.65546912 0
0.030439138 -3.7662001 -0.63822538 0
0.32423067 -3.7579644 -0.66000187 0
1.4607935 -3.7770123 -0.62006927 0
-8.3433075 -3.6811032 -0.69558179 0
-6.7027726 -3.6923971 -0.69380909 0
-5.0263119 -3.6362953 -0.67565262 0
-1.1985931 -3.697973 -0.67757958 0
0.053274155 -3.6506796 -0.66661221 0
0.43711185 -3.6219077 -0.63280225 0
2.6265502 -3.6894681 -0.64176202 0
6.0092983 -3.6849658 -0.62299484 0
-5.3735957 -3.5359743 -0.68064505 0
-1.5256701 -3.5166667 -0.68325019 0
2.9028833 -3.5005112 -0.63483828 0
8.0325565 -3.560801 -0.61625755 0
8.5417242 -3.5419722 -0.61578828 0
-9.006815 -3.432332 -0.60943341 0
-8.9961929 -3.496438 -0.64427102 0
-0.36523008 -3.4383595 -0.66766304 0
2.5212104 -3.424263 -0.65252417 0
6.0311036 -3.4776099 -0.61813319 0
-8.9998035 -3.3475871 -0.68806851 0
-7.7848577 -3.3823743 -0.69156498 0
-5.9251976 -3.3114853 -0.6790964 0
-4.6403174 -3.3218312 -0.68723977 0
-1.7413578 -3.334141 -0.67267704 0
-0.95304537 -3.3581047 -0.63998675 0
1.0143931 -3.3526132 -0.6349507 0
1.10092 -3.3214929 -0.61250037 0
1.2690721 -3.353822 -0.6573028 0
2.0243685 -3.3517416 -0.65260917 0
2.1759858 -3.3551874 -0.65245014 0
5.2649789 -3.3919284 -0.62455171 0
5.9242039 -3.3191636 -0.64095265 0
6.4225144 -3.3936665 -0.6031599 0
7.6499023 -3.3190022 -0.62141222 0
-7.1711273 -3.2139251 -0.68755442 0
-0.85774612 -3.2946699 -0.67357367 0
1.2331346 -3.2522087 -0.65355188 0
1.4613593 -3.2598014 -0.62469852 0
1.8165798 -3.2063887 -0.65662944 0
5.3431473 -3.2540703 -0.63091046 0
5.7539587 -3.2134154 -0.62745017 0
6.3294277 -3.2049012 -0.63436592 0
6.7989612 -3.2707593 -0.60736942 0
7.9687281 -3.2007024 -0.61727893 0
8.8486614 -3.2886467 -0.60989463 0
8.9825335 -3.2231922 -0.60176522 0
-8.9801159 -3.1486104 -0.66925257 0
-6.5346422 -3.181299 -0.68425012 0
-2.269846 -3.1057739 -0.68715632 0
-1.2361844 -3.1884587 -0.67471474 0
0.48260713 -3.1799984 -0.60558033 0
1.0339961 -3.16486 -0.62212682 0
3.9615083 -3.1394536 -0.60117531 0
4.0533495 -3.1281679 -0.61982173 0
5.1228032 -3.1579256 -0.62059045 0
6.377809 -3.1504841 -0.63596523 0
6.7904577 -3.1347103 -0.62882066 0
7.2314405 -3.1803794 -0.62028486 0
8.1498432 -3.1895134 -0.6173861 0
-8.9922667 -3.0417721 -0.64152354 0
-8.7159805 -3.0002458 -0.68915761 0
0.89115214 -3.069458 -0.65692323 0
1.3341877 -3.0100732 -0.66063702 0
3.6930559 -3.0275064 -0.62817168 0
3.8346429 -3.030232 -0.61306876 0
3.9956102 -3.0794547 -0.62524652 0
4.0026913 -3.0263329 -0.61743861 0
5.6632905 -3.0618103 -0.63796389 0
5.7993445 -3.0134182 -0.61352414 0
8.7281761 -3.0309823 -0.61083591 0
8.811264 -3.0835388 -0.61721557 0
8.9606647 -3.0181651 -0.6107741 0
-2.1092496 -2.9482071 -0.65097958 0
1.1196697 -2.9712956 -0.60994917 0
1.2712765 -2.9285035 -0.66538584 0
1.5112106 -2.928329 -0.6187709 0
3.7435913 -2.9677396 -0.647295 0
6.0352106 -2.9722726 -0.63563478 0
7.6827221 -2.9354467 -0.62187642 0
8.8579741 -2.9649158 -0.61161458 0
-4.9396939 -2.8991923 -0.66022283 0
-1.0047896 -2.8003254 -0.67093825 0
-0.64387465 -2.8456192 -0.67305958 0
0.058050632 -2.864229 -0.62251079 0
0.19792747 -2.8273346 -0.62166893 0
0.43953323 -2.8329358 -0.65833831 0
0.60832453 -2.8412008 -0.66314334 0
1.8054035 -2.806962 -0.63618129 0
6.2934289 -2.881191 -0.60035723 0
7.1812634 -2.8077502 -0.61910576 0
7.4937687 -2.8731375 -0.60081881 0
8.3762894 -2.8681476 -0.6166141 0
8.9633503 -2.828804 -0.60874981 0
-8.9835806 -2.7626424 -0.64607948 0
-0.94763756 -2.7676501 -0.64714438 0
3.1415513 -2.7023988 -0.60244608 0
3.2857676 -2.7320814 -0.6132794 0
4.2416716 -2.7399163 -0.62439716 0
5.8715572 -2.7241979 -0.62846071 0
6.6564445 -2.7769661 -0.62980801 0
6.7870493 -2.7019687 -0.61579543 0
-7.9984775 -2.6439745 -0.68061793 0
-5.6390305 -2.6022484 -0.65942758 0
3.1696136 -2.66116 -0.61698288 0
3.3134849 -2.6685982 -0.63111645 0
4.7766047 -2.6735694 -0.6167444 0
4.871922 -2.6732476 -0.62872076 0
5.2825365 -2.6929274 -0.64253324 0
6.38801 -2.6302872 -0.63409984 0
8.3096962 -2.6942685 -0.61708778 0
8.9763641 -2.6509054 -0.6080761 0
-9.003706 -2.5253835 -0.66721493 0
-2.6614785 -2.511266 -0.68450481 0
-2.2267509 -2.5456374 -0.652255 0
-2.0143065 -2.5330245 -0.64277118 0
-0.88982368 -2.5635405 -0.62639338 0
-0.25682998 -2.5985773 -0.65928531 0
2.0360146 -2.5945373 -0.62791395 0
2.660605 -2.5240979 -0.63957936 0
3.2322812 -2.5286868 -0.62127757 0
6.5486789 -2.5590062 -0.61004317 0
-8.9846888 -2.4373262 -0.62135887 0
-7.2215548 -2.4696875 -0.67000383 0
-6.4154205 -2.4330909 -0.66527885 0
-2.7501287 -2.4561567 -0.68552107 0
-2.544338 -2.4885387 -0.67278504 0
-2.4886663 -2.4098332 -0.60273361 0
-2.1092818 -2.4434881 -0.62651968 0
-2.0882268 -2.4808264 -0.65618217 0
-1.5033848 -2.4769626 -0.67031676 0
3.2170866 -2.4516096 -0.60513461 0
4.4582043 -2.4636483 -0.61671716 0
4.5322733 -2.481674 -0.6201098 0
5.856123 -2.4212756 -0.63840163 0
7.7295098 -2.4245043 -0.62094885 0
8.1010771 -2.4769228 -0.61483908 0
-2.915385 -2.3262358 -0.67734742 0
-2.7129138 -2.3854401 -0.66126573 0
-2.5407372 -2.3551757 -0.60717869 0
-2.440063 -2.3682392 -0.60037524 0
-2.1562216 -2.3715477 -0.61109859 0
-1.9821076 -2.3609927 -0.66031587 0
-1.4696159 -2.3814428 -0.68609881 0
0.26274109 -2.3191733 -0.6715129 0
1.000668 -2.3904228 -0.62652516 0
1.9919375 -2.3704104 -0.61595857 0
2.9480343 -2.3886409 -0.62612194 0
3.0112607 -2.3356757 -0.63046694 0
4.565114 -2.3639507 -0.63411486 0
5.2250862 -2.3548491 -0.61672282 0
5.4652786 -2.3421412 -0.60940206 0
6.4843063 -2.305912 -0.62821662 0
7.961669 -2.3787787 -0.6117695 0
8.882349 -2.3039241 -0.61144519 0
8.973278 -2.3844016 -0.61220402 0
-9.0054741 -2.2058597 -0.65352535 0
-8.991209 -2.2351556 -0.66688222 0
-3.0129757 -2.2055945 -0.67294806 0
-2.9073842 -2.2361465 -0.66730261 0
-2.8833754 -2.2599459 -0.69451541 0
-1.889694 -2.2502301 -0.66332746 0
0.73895311 -2.2527044 -0.65981358 0
1.9842601 -2.248565 -0.63213503 0
2.6280448 -2.2744493 -0.62778735 0
3.3545332 -2.2447858 -0.62009192 0
4.6511497 -2.2457356 -0.6427936 0
5.8052106 -2.2509065 -0.61929375 0
6.4284306 -2.2585218 -0.63396919 0
7.0877452 -2.2145638 -0.60043007 0
7.1119766 -2.2938645 -0.62013799 0
-3.691335 -2.1305118 -0.68335974 0
-2.9261324 -2.1280565 -0.67270434 0
-2.8100033 -2.141202 -0.63912314 0
-2.0944431 -2.1782775 -0.61110026 0
-1.862967 -2.1275625 -0.66560036 0
3.0172639 -2.1204665 -0.63743716 0
3.4092319 -2.1505365 -0.6141293 0
-2.9180465 -2.0145609 -0.68064547 0
-2.884011 -2.0946884 -0.67170763 0
-2.0247664 -2.0424385 -0.60954648 0
-1.9665504 -2.0380487 -0.63447523 0
-1.8480603 -2.0626662 -0.66309857 0
-1.787385 -2.0145197 -0.64049697 0
-1.4857101 -2.0796323 -0.6572699 0
1.2459517 -2.052115 -0.63779759 0
4.7650828 -2.0729048 -0.61851996 0
4.8331323 -2.0917494 -0.64216667 0
8.6484842 -2.0240126 -0.61297673 0
-9.0060434 -1.9185867 -0.66619891 0
-5.137073 -1.9531722 -0.68721825 0
-2.9498942 -1.9785371 -0.68298358 0
-2.7768507 -1.9399259 -0.61783165 0
-2.0844755 -1.9955349 -0.60089898 0
4.8747063 -1.936913 -0.63017267 0
8.9713297 -1.9072955 -0.60806578 0
-5.9643083 -1.8742471 -0.63899404 0
-5.6175985 -1.8621626 -0.61093622 0
-5.019485 -1.8298743 -0.62425768 0
-2.945323 -1.8432847 -0.67559832 0
-2.0019403 -1.8789644 -0.61081684 0
-1.9957008 -1.8482618 -0.60357296 0
-1.8375099 -1.8272196 -0.67198086 0
4.9831219 -1.8052411 -0.63130426 0
7.0003757 -1.8891289 -0.61449224 0
8.9568024 -1.832202 -0.60287642 0
-5.0118394 -1.790114 -0.64831835 0
-4.9124374 -1.7218375 -0.62416887 0
-4.8911428 -1.7845459 -0.67756999 0
-4.5114326 -1.7335684 -0.62570083 0
-2.6436028 -1.7328079 -0.60821617 0
-2.0861454 -1.742348 -0.62784165 0
-1.938591 -1.7944769 -0.63486552 0
-1.8044267 -1.7201996 -0.69697052 0
1.8305805 -1.7959003 -0.65979564 0
3.6888847 -1.7853209 -0.62779242 0
5.0175118 -1.7792144 -0.6186828 0
5.5527515 -1.7402778 -0.63671303 0
6.0264773 -1.7503314 -0.6203407 0
7.9113388 -1.7009933 -0.61759412 0
8.977026 -1.7430481 -0.60592198 0
-5.0236359 -1.6749272 -0.62419832 0
-2.6208739 -1.6257293 -0.62082219 0
-2.587594 -1.694142 -0.60216504 0
-2.3727899 -1.6457646 -0.60891712 0
-2.0240545 -1.6404347 -0.65575808 0
-1.9554418 -1.6408259 -0.66841125 0
-0.55232096 -1.6505728 -0.63383013 0
0.17316079 -1.6224782 -0.62614959 0
3.8430023 -1.6390305 -0.62105703 0
5.1225643 -1.6405649 -0.62446344 0
-8.6226044 -1.5739822 -0.66536796 0
-5.0245337 -1.5480855 -0.63135952 0
-2.6113999 -1.5427008 -0.66974592 0
-2.24055 -1.5347834 -0.63526309 0
-1.9395742 -1.5826664 -0.61764693 0
-1.8542728 -1.5110047 -0.6670382 0
-1.1353116 -1.5411122 -0.64752537 0
-0.016505718 -1.5952504 -0.66182041 0
3.8901954 -1.5615094 -0.62295407 0
5.1939306 -1.5597446 -0.64231133 0
6.3215265 -1.5445328 -0.63292986 0
7.124176 -1.5279062 -0.62077916 0
7.3982568 -1.5501087 -0.60995638 0
8.8129816 -1.5694847 -0.60955334 0
8.9553995 -1.5605472 -0.6072405 0
-2.8379369 -1.4029928 -0.68888974 0
-2.2434201 -1.4769709 -0.66758078 0
-2.1198423 -1.4602237 -0.65405756 0
-0.87164116 -1.4606829 -0.67974502 0
0.72154832 -1.4190412 -0.6553064 0
8.9791393 -1.4048982 -0.61132967 0
-5.9930286 -1.3354162 -0.67299151 0
-5.0347247 -1.3457361 -0.64579982 0
-2.2526376 -1.3806133 -0.66214633 0
-0.71181601 -1.3464823 -0.64010471 0
-0.53331923 -1.3839594 -0.6315167 0
4.0516376 -1.387702 -0.61720377 0
6.3266802 -1.3275206 -0.61538225 0
8.9806499 -1.3723238 -0.60292906 0
-7.591826 -1.2747512 -0.65108061 0
-6.5197763 -1.2001548 -0.63903439 0
-6.0248437 -1.2376454 -0.61720347 0
-3.5042071 -1.2251604 -0.68679857 0
-2.5006404 -1.2936473 -0.67474222 0
-1.8207448 -1.2792708 -0.66665769 0
4.1505818 -1.2530913 -0.61509055 0
8.9757004 -1.2550714 -0.6030581 0
-8.9957581 -1.1460474 -0.67677963 0
-5.0498123 -1.1199613 -0.61757892 0
-2.3443842 -1.1319926 -0.67674536 0
4.1845913 -1.1941286 -0.6173436 0
4.2180066 -1.1554072 -0.62180763 0
8.056221 -1.1146543 -0.60340542 0
8.1431589 -1.1267619 -0.60039997 0
8.9623089 -1.161921 -0.61419249 0
-6.0247445 -1.0475705 -0.69042772 0
4.2847795 -1.0940781 -0.61750883 0
5.6299191 -1.0129826 -0.61742258 0
5.7303915 -1.0898595 -0.63498938 0
7.7234845 -1.018872 -0.6054194 0
7.9796772 -1.0548239 -0.60663319 0
-8.9913101 -0.92057985 -0.64146459 0
-6.0408392 -0.92865992 -0.69180286 0
-5.0560846 -0.98820543 -0.67223257 0
-1.1927233 -0.94081676 -0.63594133 0
1.0508723 -0.94633102 -0.66504401 0
5.7039371 -0.90077782 -0.61630529 0
5.8759851 -0.9302249 -0.60988045 0
6.184793 -0.90093184 -0.60137826 0
8.9685946 -0.92509794 -0.61043072 0
-1.3711939 -0.87653232 -0.67697281 0
0.90977311 -0.8500669 -0.62770593 0
4.4671092 -0.84285748 -0.61645341 0
-3.0262482 -0.74571204 -0.69545186 0
-2.5580997 -0.72026324 -0.68148595 0
-2.0025797 -0.73305547 -0.67454958 0
-3.3798594 -0.61902857 -0.68988705 0
5.8766251 -0.67751646 -0.61545932 0
-6.0618315 -0.55416393 -0.61931556 0
-1.7740562 -0.53172243 -0.68508911 0
4.6848655 -0.53395748 -0.61246008 0
5.7691269 -0.56358576 -0.63395649 0
8.4885273 -0.5862751 -0.6144858 0
-5.0814819 -0.49551582 -0.66440737 0
-1.6113721 -0.41240931 -0.67076135 0
0.88668329 -0.44060326 -0.63502049 0
3.4065194 -0.49181747 -0.62245458 0
-8.9578228 -0.33587903 -0.63167197 0
-1.9106834 -0.37657547 -0.62854612 0
4.8597813 -0.37890291 -0.60916764 0
7.4419346 -0.31327486 -0.61746132 0
-8.9930334 -0.28485465 -0.6277231 0
-0.79988813 -0.23970151 -0.69235522 0
6.3650708 -0.29111338 -0.63194245 0
-3.2914283 -0.18948627 -0.69434047 0
-0.063877821 -0.17181277 -0.64715123 0
1.0745234 -0.11093414 -0.64554226 0
-5.1187429 -0.027689397 -0.60256875 0
-2.0430145 0.0032730103 -0.66529518 0
1.2893357 0.0037314892 -0.62354821 0
7.7685537 0.065761089 -0.60335708 0
-2.3711681 0.23820257 -0.68174887 0
-1.2673302 0.23480582 -0.67869723 0
-0.68190932 0.25872064 -0.66008651 0
-0.48938054 0.2785449 -0.61742699 0
-2.2120185 0.32917452 -0.69047028 0
8.9815121 0.39452505 -0.60057139 0
-8.9672632 0.45755202 -0.64508426 0
-6.1178026 0.47604918 -0.63906753 0
-5.1491852 0.40251517 -0.68966442 0
1.6422441 0.59923816 -0.62557995 0
-5.1743822 0.61071014 -0.61537987 0
-0.38466391 0.64447832 -0.64604199 0
2.6286924 0.61963511 -0.60647243 0
4.6106877 0.61999989 -0.60986388 0
-8.9483109 0.76899141 -0.6419462 0
-5.1650739 0.72537351 -0.6298238 0
-2.0257092 0.76177824 -0.6921047 0
8.2134991 0.72960567 -0.60449952 0
8.9634056 0.77440882 -0.60644579 0
1.1565123 0.83708864 -0.64558393 0
6.8854775 0.88717461 -0.6124841 0
-6.1429725 0.9623602 -0.66122931 0
-5.1759977 0.97897792 -0.64580339 0
-0.6510272 0.97082883 -0.65380752 0
0.84927464 0.95612246 -0.65309465 0
0.97195625 0.96055549 -0.6692636 0
1.0480224 0.93905449 -0.65183252 0
1.2077789 0.98159146 -0.63992602 0
1.3259187 0.97498852 -0.63223374 0
8.9569988 0.9391408 -0.60525608 0
-6.1437521 1.0764414 -0.64954722 0
-6.0907331 1.083858 -0.66463101 0
-5.1838021 1.0481216 -0.65175289 0
-2.8112113 1.0714362 -0.69880223 0
1.2267427 1.0148814 -0.61262053 0
-5.4159555 1.1104064 -0.65636253 0
-5.2195458 1.1381217 -0.66506088 0
-5.1846051 1.1285335 -0.63797218 0
0.49035636 1.2428887 -0.63112086 0
-8.9560738 1.3485215 -0.65342617 0
-3.4133897 1.3474994 -0.61644584 0
0.47834587 1.3116322 -0.65277004 0
-5.3582821 1.4257302 -0.69009036 0
-2.7707143 1.4675901 -0.674707 0
-2.0942545 1.4354215 -0.68548912 0
-3.1303911 1.5789601 -0.68049365 0
3.7793789 1.5202789 -0.60520852 0
5.1378865 1.5256207 -0.62098533 0
5.8144941 1.5620971 -0.60783958 0
-8.9409447 1.6916096 -0.66055441 0
-2.9475322 1.6719606 -0.64410061 0
-2.8574407 1.6488602 -0.63044226 0
-2.7559538 1.6539586 -0.61410511 0
-2.6048341 1.609123 -0.61321783 0
-2.5594831 1.6177518 -0.61727643 0
-2.4330359 1.6851363 -0.62885058 0
-2.3887742 1.6304457 -0.66536921 0
0.027548194 1.6025729 -0.64914703 0
0.53142798 1.6883917 -0.65053242 0
4.5141773 1.6165051 -0.61312675 0
-8.9520655 1.7997386 -0.63375938 0
-3.1090817 1.7059408 -0.68986875 0
-2.9292531 1.7173294 -0.67980748 0
-2.8519859 1.7968855 -0.64821422 0
-2.4480965 1.7399051 -0.60941178 0
-2.3482621 1.7283494 -0.63379991 0
-2.2638683 1.7363334 -0.60404515 0
1.4512181 1.7416477 -0.64335489 0
8.9731722 1.7383976 -0.60430866 0
-3.0190959 1.8665632 -0.66321278 0
-2.9630461 1.8293052 -0.64912492 0
-2.8886728 1.8525537 -0.6666382 0
-2.323746 1.8255891 -0.62053692 0
-2.1339922 1.8314068 -0.69939345 0
-0.78104073 1.8383915 -0.65620202 0
0.58892536 1.8063655 -0.65167373 0
-3.0398805 1.9402237 -0.62979275 0
-2.9442534 1.911355 -0.61485243 0
0.71230268 1.9246147 -0.64090669 0
0.8617878 1.9757404 -0.67117977 0
6.2221894 1.9666574 -0.61068827 0
-3.0690792 2.0668905 -0.63934553 0
-2.9587779 2.06582 -0.60370791 0
-2.2530818 2.017802 -0.60102993 0
0.75461578 2.0009031 -0.648624 0
0.85818863 2.046001 -0.649575 0
0.95339304 2.0608175 -0.65455645 0
1.0270414 2.0463066 -0.61473048 0
1.1326673 2.0487623 -0.61401671 0
1.2087517 2.0037766 -0.61702514 0
2.240819 2.0956757 -0.65399694 0
-8.9658222 2.1740496 -0.66085684 0
-3.1907883 2.1293054 -0.69943637 0
-3.0771384 2.120389 -0.66748315 0
-2.2928677 2.1461854 -0.60406667 0
-2.1864877 2.1374354 -0.67885023 0
-0.30046523 2.1637616 -0.64878243 0
-2.9178505 2.2974989 -0.66335309 0
-2.7133102 2.2680511 -0.64552701 0
-2.6647654 2.2974241 -0.60124922 0
-2.4307523 2.2970335 -0.61105418 0
-2.3814673 2.2863896 -0.61181277 0
-2.6726017 2.3785341 -0.67418617 0
-2.576185 2.3478043 -0.61738801 0
-2.8154526 2.4897387 -0.69520271 0
-2.7445257 2.4536028 -0.60530686 0
-2.6844068 2.411721 -0.62852305 0
6.9488702 2.4893169 -0.61890233 0
-8.9479694 2.5351853 -0.65215611 0
-2.8286357 2.5614674 -0.68190241 0
-2.75701 2.5462193 -0.67687869 0
-2.4283397 2.5307298 -0.66888165 0
-0.84390992 2.599684 -0.65897757 0
-0.27138388 2.5517907 -0.64787132 0
4.3644419 2.5969284 -0.6263988 0
-0.43283176 2.7413375 -0.67181891 0
5.2283082 2.7802908 -0.61771172 0
6.1774158 2.7730725 -0.60356641 0
-8.9488068 2.8403692 -0.62270141 0
0.17070937 2.8675327 -0.66192055 0
2.8644729 2.8159406 -0.63880914 0
4.3344784 2.8499186 -0.61059558 0
0.12943077 2.9511845 -0.65580499 0
-5.6696029 3.0023084 -0.69029075 0
-2.3062935 3.0180812 -0.6755299 0
1.1077921 3.0631411 -0.65220988 0
3.2354817 3.0285347 -0.62829649 0
3.9216371 3.0166674 -0.62209213 0
-8.9308214 3.1089048 -0.64936745 0
-5.4788909 3.1753635 -0.67063963 0
-0.81575346 3.1139231 -0.65990365 0
2.7702255 3.154989 -0.63008177 0
3.5492244 3.122757 -0.60752177 0
-0.79130507 3.2852283 -0.65990281 0
-0.38542557 3.2573779 -0.67992032 0
2.621558 3.3795378 -0.62942111 0
3.634768 3.366055 -0.63156378 0
7.8985023 3.3518219 -0.60837781 0
9.0178003 3.3506782 -0.60414207 0
-1.4863999 3.4868674 -0.67038882 0
-0.75234848 3.4777648 -0.66249341 0
4.216085 3.4353402 -0.61989892 0
3.6493299 3.5259471 -0.60346133 0
3.759707 3.5764165 -0.62480271 0
0.23638602 3.6954677 -0.65994877 0
3.283103 3.6459546 -0.60713202 0
3.8232591 3.8294394 -0.62222934 0
-1.0482686 4.0113168 -0.66320866 0
1.8649516 4.1425858 -0.62949604 0
2.6997011 4.1588588 -0.626445 0
-8.9287033 4.264019 -0.60159618 0
-5.4905138 4.2278376 -0.65536278 0
0.23007651 4.2078876 -0.66232044 0
1.8813834 4.2801785 -0.62362415 0
2.4741211 4.2836933 -0.62810862 0
2.8415916 4.2814178 -0.60597825 0
2.9198565 4.2292662 -0.63182247 0
3.2445455 4.2766027 -0.60805857 0
3.3613906 4.2792263 -0.61565566 0
3.5890245 4.2627544 -0.61025357 0
3.6707704 4.2625108 -0.60572517 0
3.8327014 4.2771091 -0.61208457 0
4.1098757 4.2639017 -0.61021179 0
4.6069217 4.23037 -0.60792768 0
4.8176546 4.2564073 -0.6102947 0
-2.3590846 4.3965025 -0.6848821 0
-1.2986631 4.3547626 -0.64465076 0
-1.17901 4.3444834 -0.67871326 0
1.6932306 4.3609576 -0.64478564 0
1.7499199 4.3244076 -0.60544157 0
4.8928123 4.3296185 -0.60323501 0
-4.1313691 4.4977393 -0.63608819 0
-3.2857413 4.486568 -0.69090813 0
-2.5324111 4.4657717 -0.65219945 0
-2.1302493 4.4956579 -0.68157637 0
-1.9512718 4.4948788 -0.63873792 0
-1.8579924 4.4879031 -0.64633858 0
-1.7496159 4.4994626 -0.67543244 0
-1.5031137 4.488174 -0.60431629 0
-1.3673297 4.4938307 -0.63785398 0
-1.2310694 4.4923549 -0.61660135 0
-1.1856545 4.4870901 -0.62028551 0
-0.99400568 4.4571977 -0.62305689 0
-0.041270018 4.4553442 -0.63348734 0
1.8091882 4.4685755 -0.61883378 0
-4.1477647 4.5240774 -0.63703638 0
-4.0578265 4.5071006 -0.69952697 0
-3.9891207 4.5122099 -0.63757914 0
-3.8556206 4.5134802 -0.65680575 0
-3.5445328 4.505847 -0.64950204 0
-3.2656698 4.5138578 -0.65526611 0
-2.4842849 4.5098004 -0.67402929 0
-1.2145097 4.5088563 -0.61253572 0
-1.1710584 4.526577 -0.63337874 0
-1.0211811 4.5072675 -0.69675887 0
0.069362164 4.5603971 -0.65423703 0
4.8522987 4.5297451 -0.62099308 0
-8.921073 4.6702614 -0.65795004 0
-1.1587558 4.6252384 -0.65825355 0
-8.9256601 4.7424397 -0.60514826 0
-4.1531167 4.7641892 -0.63187271 0
1.7278038 4.7775531 -0.62539798 0
9.0111208 4.7110972 -0.60917783 0
-6.6329088 4.8687778 -0.69549632 0
1.5675297 4.8865519 -0.6539256 0
-4.1186514 4.9938002 -0.60165054 0
0.10702206 4.9543214 -0.66805559 0
1.4892142 4.9038458 -0.65550286 0
1.7753898 4.9824367 -0.6447714 0
-4.1522837 5.0611491 -0.62611663 0
-8.9625587 5.101059 -0.68536741 0
-7.1572137 5.1532435 -0.65175802 0
0.87816477 5.1771135 -0.67185521 0
6.9322195 5.1684198 -0.60264224 0
-7.7049527 5.292202 -0.68300295 0
-7.5256457 5.2559547 -0.63537562 0
-7.4439778 5.2425923 -0.62980491 0
-7.3555288 5.2344022 -0.63843876 0
-7.2740159 5.2421303 -0.61654288 0
-7.1988592 5.2877026 -0.65905029 0
-7.0949264 5.2856879 -0.65858603 0
-4.1429648 5.2422924 -0.69102752 0
1.8483448 5.2308722 -0.60730702 0
2.6602888 5.2826548 -0.60984343 0
3.0519104 5.2873287 -0.60026646 0
3.5612571 5.2690301 -0.6066367 0
-7.5735445 5.3496079 -0.62795556 0
-7.1269565 5.3353791 -0.62115324 0
-7.0694628 5.3726668 -0.64292973 0
-4.1286025 5.3288474 -0.69708347 0
-1.161366 5.3538198 -0.62897128 0
0.13968325 5.3562136 -0.67672265 0
1.6767848 5.3136783 -0.63994664 0
1.8683181 5.3535047 -0.64385241 0
2.3486495 5.3055015 -0.62064189 0
2.5266297 5.348865 -0.61745143 0
2.8583312 5.303154 -0.60438102 0
3.0554304 5.3015165 -0.60671878 0
-7.613965 5.496789 -0.68794191 0
-7.596096 5.4271827 -0.63605613 0
-7.1022987 5.4092302 -0.64109629 0
-7.0543647 5.4614153 -0.633385 0
-4.1345658 5.4513445 -0.65029544 0
0.44456887 5.4439692 -0.68434256 0
1.3827677 5.4844656 -0.65688407 0
1.8466424 5.4964242 -0.64503181 0
-8.9666672 5.5676947 -0.65674198 0
-7.0730929 5.5622063 -0.63466901 0
-4.1183801 5.5070696 -0.67209351 0
-3.8836746 5.5099125 -0.654814 0
-2.4751472 5.5142822 -0.69743609 0
-2.0560324 5.5230961 -0.69903803 0
-1.0638227 5.571085 -0.68890166 0
1.9370401 5.5065575 -0.63378882 0
4.1834412 5.5759497 -0.6154207 0
6.4215307 5.5748882 -0.60107332 0
-7.621417 5.6120987 -0.62661624 0
-7.1101623 5.6739559 -0.63991714 0
-7.0888824 5.6552243 -0.63324547 0
-1.4643908 5.6781673 -0.68950772 0
-0.92477965 5.6311989 -0.66646278 0
1.1788294 5.6450253 -0.66841477 0
-8.949358 5.77107 -0.69546783 0
-7.546638 5.7273664 -0.6158424 0
-7.4792008 5.7897463 -0.65781546 0
-7.1907806 5.7735758 -0.62325442 0
-7.0308824 5.7011824 -0.66640371 0
-0.69364238 5.7550421 -0.67602623 0
0.41686726 5.7523022 -0.68118745 0
2.4287276 5.7720919 -0.64724272 0
-8.9247017 5.8320684 -0.60641742 0
-7.4336705 5.8023081 -0.64149451 0
-7.3761473 5.8248663 -0.64974976 0
-7.1569681 5.8825226 -0.66412938 0
-0.071570158 5.8955922 -0.69260198 0
0.12744522 5.8826818 -0.62082857 0
4.6086736 5.8913531 -0.6112501 0
-0.059020281 5.9991589 -0.66780168 0
2.0407915 5.965404 -0.62203449 0
3.2898242 5.9944363 -0.61500317 0
0.49976826 6.0300198 -0.65516889 0
-7.48176 6.1900787 -0.66754824 0
-0.38102257 6.1055684 -0.68142742 0
0.87859631 6.1510034 -0.65615207 0
4.012394 6.184371 -0.61338615 0
4.9048767 6.1070061 -0.61433142 0
-7.2172923 6.2555542 -0.65549463 0
0.81482649 6.2280951 -0.61969918 0
1.5278583 6.2648296 -0.64720148 0
4.486022 6.3919048 -0.61095834 0
1.2279427 6.4782085 -0.61368895 0
4.8341169 6.5454535 -0.60979319 0
5.7794046 6.5963097 -0.61806071 0
1.9521439 6.6721663 -0.61058539 0
2.8457828 6.6857443 -0.60136592 0
6.4599481 6.6316671 -0.62394875 0
2.7682014 6.7327995 -0.64423496 0
3.2209239 6.7928004 -0.61110926 0
5.1531601 6.7925425 -0.63921893 0
7.472652 6.7230997 -0.61641413 0
7.5635362 6.7991982 -0.60618263 0
-8.9241142 6.831234 -0.62981474 0
3.9694507 6.8191428 -0.60873449 0
4.0857449 6.8920407 -0.65328175 0
-0.13925076 6.9165611 -0.62025845 0
3.0430913 6.9734287 -0.67239982 0
4.4777422 6.9172711 -0.60569096 0
4.8619776 6.9948139 -0.60095751 0
5.7885394 6.9842634 -0.68130255 0
6.3475471 6.9397669 -0.60573107 0
-8.9344616 7.0504432 -0.61120796 0
-0.3352375 7.0410223 -0.69007063 0
1.9949522 7.0401583 -0.61829191 0
6.4946136 7.0629339 -0.66321301 0
-8.9158258 7.1014872 -0.64711314 0
2.7005005 7.178782 -0.60542285 0
-8.923727 7.2147026 -0.62542546 0
1.0394289 7.2589335 -0.61744636 0
1.8123307 7.2828045 -0.61036539 0
2.3207788 7.2244101 -0.60797542 0
-8.9328718 7.4313436 -0.6222477 0
4.0752845 7.446394 -0.60266089 0
3.3248289 7.5851731 -0.60812664 0
0.90116549 7.6614385 -0.64658242 0
2.6313741 7.6212373 -0.61209601 0
2.2774496 7.7452698 -0.61200917 0
-0.19585037 7.987442 -0.62296158 0
1.7880387 7.9173808 -0.61515075 0
1.0510883 8.0532684 -0.61717689 0
2.0649507 8.0952368 -0.64640146 0
2.1978216 8.0981779 -0.61369169 0
2.6906505 8.0457668 -0.60248893 0
-8.9224463 8.274291 -0.60564053 0
-1.7211668 8.2120209 -0.69564104 0
2.3581543 8.2582684 -0.60765171 0
3.6133652 8.343709 -0.60014898 0
1.9233632 8.5292425 -0.6092537 0
-1.4147357 8.6593399 -0.64607841 0
-0.25425982 8.6831217 -0.67498171 0
-1.7114944 8.8916721 -0.64603573 0
1.226649 8.829607 -0.61315912 0
-8.9315157 8.9746075 -0.65838104 0
-2.7727678 8.9849157 -0.65132743 0
-2.2820559 8.9800329 -0.63260239 0
-1.7386661 8.9897709 -0.6310395 0
-1.344183 8.9953632 -0.6271404 0
-0.94928837 8.9963121 -0.60957557 0
-0.031412125 8.993557 -0.68527162 0
0.064737797 8.9970579 -0.60960978 0
0.24465084 8.9835701 -0.65664369 0
0.49850988 8.9868288 -0.62040716 0
0.69527721 8.9855423 -0.61879212 0
0.86145401 8.9743052 -0.67832786 0
0.96184969 8.9875889 -0.62227148 0
1.0966411 8.9534836 -0.65102178 0
1.1299958 8.9902964 -0.67118609 0
2.1700332 8.9679651 -0.64240891 0
2.2568278 8.9504452 -0.63034463 0
2.3719723 8.9861641 -0.63657552 0
2.4719131 8.969945 -0.62429541 0
2.5853844 8.9543009 -0.60487777 0
2.6566207 8.9888697 -0.65462768 0
2.8596396 8.9550095 -0.60019428 0
3.0778518 8.9703827 -0.64700735 0
3.2774372 8.9732237 -0.63811457 0
3.4053507 8.9658985 -0.64664304 0
3.6548254 8.9543171 -0.61177421 0
3.795156 8.9717159 -0.62549388 0
4.947423 8.9503078 -0.63777632 0
-8.9184904 9.0307055 -0.64164817 0
-8.8691769 9.0280695 -0.64705461 0
-8.6221962 9.0277414 -0.69705194 0
-7.9882002 9.0133905 -0.64029586 0
-7.7759776 9.0177374 -0.64132446 0
-7.0423927 9.036314 -0.62896746 0
-6.6479101 9.0096254 -0.67170382 0
-5.8497109 9.0237713 -0.64368391 0
-5.7533331 9.0092802 -0.67595184 0
-5.5146308 9.029274 -0.66220993 0
-5.1644278 9.0294762 -0.60298723 0
-4.8223286 9.0187454 -0.64528942 0
-4.394331 9.023982 -0.61972308 0
-4.2305155 9.0014229 -0.61444849 0
-3.7941606 9.0209332 -0.67009449 0
-3.481874 9.0120125 -0.64044368 0
-3.3051333 9.0085011 -0.66165638 0
-2.1022296 9.0064173 -0.60620552 0
-2.0101752 9.0118589 -0.63331032 0
-1.4301004 9.0051117 -0.62255853 0
-0.69966483 -9.0037022 -0.58211356 0
0.15728635 -9.0029964 -0.50708497 0
0.45765013 -9.0025978 -0.56420362 0
1.1162164 -9.0119219 -0.58032411 0
1.6290181 -9.0024834 -0.5780521 0
2.1977143 -9.0080976 -0.58855247 0
2.6571004 -9.008316 -0.5030421 0
3.2785316 -9.0003567 -0.51436222 0
4.8540335 -9.0267878 -0.57181221 0
5.3699903 -9.0018215 -0.57891327 0
6.3204026 -9.0097008 -0.54383677 0
6.7210097 -9.0434971 -0.56989914 0
6.9488077 -9.031702 -0.54946649 0
7.1675949 -9.0241423 -0.55665135 0
7.7427998 -9.0346346 -0.5600667 0
7.8450327 -9.0252647 -0.55095023 0
7.9406052 -9.0394154 -0.50592697 0
8.019865 -9.0188332 -0.58050507 0
8.414011 -9.0253668 -0.54419315 0
8.5035706 -9.0300999 -0.54506069 0
8.8678207 -9.0390968 -0.58210576 0
8.938364 -9.0311909 -0.53033978 0
-9.030221 -8.9473543 -0.53938317 0
-8.9938049 -8.9491806 -0.55561703 0
-8.2786722 -8.9672527 -0.53449154 0
-7.8419228 -8.9480114 -0.55859655 0
-6.6635265 -8.9564285 -0.50321144 0
-6.5204282 -8.958005 -0.55475169 0
-5.3569126 -8.9670315 -0.53726387 0
-3.4856639 -8.9708271 -0.50198001 0
-3.3913121 -8.979845 -0.55604208 0
-2.6512747 -8.9845486 -0.57013005 0
-1.7821712 -8.9889183 -0.57758135 0
-0.87818617 -8.9992409 -0.5583632 0
-0.10150158 -8.9996376 -0.52599454 0
0.52941656 -8.9894867 -0.50419277 0
8.9536991 -8.9794369 -0.53850526 0
8.52353 -8.8440437 -0.55739123 0
0.82884645 -8.4509201 -0.59229273 0
-9.0372925 -8.2560453 -0.54709756 0
8.9017458 -8.2638426 -0.54918492 0
8.9644041 -7.9500923 -0.54252654 0
7.2066474 -7.659122 -0.55526346 0
8.2633858 -7.6461964 -0.57719362 0
8.9512167 -7.6586838 -0.55760455 0
-9.0343771 -7.5220432 -0.59359694 0
-9.0308657 -7.4735184 -0.52759612 0
3.5671229 -7.4976277 -0.59593898 0
3.9531982 -7.4539008 -0.5893966 0
4.3247685 -7.4187226 -0.59852517 0
8.9652891 -7.48312 -0.52177548 0
8.9492044 -7.3863416 -0.5780108 0
8.9664135 -7.2615118 -0.59011948 0
8.9516745 -7.1322308 -0.54811174 0
3.7924099 -7.0367556 -0.59360343 0
-9.0396376 -6.9955869 -0.51787192 0
3.416158 -6.9974718 -0.59728318 0
8.9281569 -6.8399334 -0.59659803 0
2.2871435 -6.701889 -0.55739808 0
3.2136338 -6.7040234 -0.59822631 0
3.5122917 -6.702961 -0.59759855 0
3.6999598 -6.7148423 -0.51666075 0
3.7445469 -6.7081041 -0.59239101 0
4.2663813 -6.7108331 -0.51513648 0
1.2496042 -6.6487141 -0.5765565 0
1.7897416 -6.698864 -0.53711361 0
3.0300965 -6.6975956 -0.59223533 0
4.2613072 -6.6745191 -0.53592891 0
4.2657213 -6.5981054 -0.58281893 0
4.2704444 -6.4699378 -0.53038746 0
1.2473596 -6.3644404 -0.5377484 0
1.1673293 -6.036273 -0.59152269 0
8.9677382 -6.0898018 -0.58583766 0
1.1967643 -5.9111896 -0.58172232 0
1.283416 -5.9644852 -0.59016848 0
8.9620361 -5.9768462 -0.58897072 0
4.2682495 -5.8131909 -0.57221955 0
4.3486052 -5.8436041 -0.56795788 0
5.8602781 -5.8158875 -0.59836686 0
1.2795895 -5.7283993 -0.54325414 0
1.3257152 -5.7142797 -0.53355294 0
1.4365404 -5.711328 -0.5321883 0
1.6425555 -5.7208529 -0.55579156 0
1.8909316 -5.7090721 -0.58867264 0
2.1975091 -5.7158103 -0.50098485 0
2.8275728 -5.7168651 -0.58652812 0
3.4196336 -5.7255478 -0.55999017 0
3.5172424 -5.7233868 -0.59920812 0
3.6664028 -5.7200384 -0.51383466 0
3.7661753 -5.732378 -0.54233265 0
3.8456867 -5.7278275 -0.54966116 0
3.9374137 -5.7218618 -0.53271353 0
4.0389066 -5.7187877 -0.51810449 0
4.1718941 -5.7214994 -0.53091347 0
4.2471724 -5.7313924 -0.53902096 0
5.88416 -5.7966204 -0.52110267 0
8.9534473 -5.7246189 -0.59014356 0
-6.0146327 -5.6517839 -0.55237919 0
-5.9760365 -5.6487756 -0.5814268 0
-5.2073965 -5.6697054 -0.53242767 0
-4.7450466 -5.6731067 -0.56318688 0
-3.7844245 -5.6825247 -0.54703283 0
-3.3813767 -5.6785169 -0.55632603 0
-3.0442011 -5.662045 -0.53530282 0
-1.088027 -5.6945858 -0.57291758 0
-0.96253967 -5.6345496 -0.52162647 0
1.2611641 -5.6626663 -0.59075272 0
1.3423666 -5.6980653 -0.53952426 0
1.711792 -5.6524825 -0.59555405 0
3.1399689 -5.6960716 -0.58782756 0
3.8356824 -5.6640348 -0.57231522 0
4.2570176 -5.6920362 -0.59985226 0
-5.9849863 -5.5936556 -0.57713521 0
-3.0164397 -5.541203 -0.53855079 0
-1.1521688 -5.5621667 -0.54542178 0
-0.53445655 -5.5689998 -0.5702281 0
-0.28484535 -5.5313201 -0.5994342 0
2.1530914 -5.5255146 -0.59187508 0
2.2723622 -5.5841579 -0.58493751 0
8.9794188 -5.5280924 -0.56639332 0
-9.0396442 -5.4127989 -0.51667792 0
-5.9922771 -5.4487791 -0.56691277 0
-1.1552861 -5.4724436 -0.54062122 0
-0.48942089 -5.4361963 -0.51960331 0
6.1901484 -5.4720287 -0.58627552 0
6.2549777 -5.4946241 -0.5910216 0
6.498827 -5.4249597 -0.57702863 0
8.9802322 -5.4599085 -0.58639693 0
-1.1405072 -5.3605223 -0.53867853 0
-1.0892476 -5.3516259 -0.55731422 0
-0.52327585 -5.3526454 -0.50112021 0
-0.46437728 -5.3193913 -0.52714318 0
6.6055899 -5.3655329 -0.55134863 0
8.964468 -5.3288889 -0.53331244 0
-1.1575463 -5.2535491 -0.53982896 0
-1.0705342 -5.2525916 -0.51407325 0
-0.52463317 -5.2713795 -0.52239662 0
-0.46153295 -5.2706461 -0.56199032 0
7.2396178 -5.2719011 -0.56755394 0
8.9895248 -5.2188168 -0.53332913 0
-0.81474298 -5.1016192 -0.52637875 0
-0.74001008 -5.1170974 -0.53259498 0
-0.63402641 -5.1533647 -0.52901328 0
-0.54471672 -5.1631932 -0.5633561 0
-0.48704851 -5.1301103 -0.58053851 0
6.9570999 -5.1145067 -0.5664559 0
8.9512672 -5.1990752 -0.55565995 0
-1.0375671 -5.0893288 -0.5509584 0
-0.95747709 -5.0404506 -0.5768888 0
-0.86568487 -5.0437441 -0.54832447 0
-0.75105256 -5.0413184 -0.53913063 0
-0.64752924 -5.0673232 -0.57445031 0
-0.51460695 -5.0997229 -0.57357669 0
6.0586748 -5.0490432 -0.54403812 0
6.200223 -5.0018244 -0.52426249 0
8.9826956 -5.0449667 -0.53471202 0
-0.79642797 -4.9630995 -0.5673272 0
5.974544 -4.9609175 -0.57090324 0
6.0779352 -4.9234152 -0.52686298 0
6.148416 -4.9360824 -0.51538908 0
8.9768801 -4.9031701 -0.56944859 0
-3.0336945 -4.8364434 -0.52226186 0
8.9665499 -4.834661 -0.54630727 0
-9.0057621 -4.7837152 -0.52167237 0
-6.0176163 -4.7335687 -0.58047557 0
-5.9767303 -4.7390184 -0.59714621 0
-3.4824238 -4.7025104 -0.57305861 0
-3.0314305 -4.7322183 -0.55710047 0
4.0905213 -4.7702465 -0.55781829 0
6.0198708 -4.7407694 -0.57891971 0
7.8049831 -4.7787237 -0.56232512 0
8.9872465 -4.7051201 -0.55247319 0
-9.0039406 -4.673666 -0.52164233 0
-6.0100327 -4.6835322 -0.54441684 0
-5.970674 -4.6800194 -0.55904245 0
-5.8699756 -4.6826782 -0.52988791 0
-5.7717199 -4.6797652 -0.53059983 0
-5.6327214 -4.6776624 -0.53227282 0
-5.101994 -4.6918011 -0.5192976 0
-5.0401807 -4.6769981 -0.58465534 0
-4.8553925 -4.6770391 -0.5255686 0
-4.7094374 -4.6792965 -0.5762198 0
-4.253345 -4.6810617 -0.55758452 0
-3.7157221 -4.6848087 -0.56758559 0
-3.6441145 -4.691463 -0.51861197 0
-3.3659043 -4.6832776 -0.57467854 0
-3.2541251 -4.6844282 -0.53993011 0
-3.0476358 -4.6910162 -0.56258124 0
6.5820837 -4.6321135 -0.53073394 0
6.6520534 -4.6396632 -0.52547157 0
6.1866455 -4.5602703 -0.59520173 0
6.5020504 -4.5459151 -0.59044147 0
8.0178661 -4.5214424 -0.57889462 0
8.9737673 -4.5510087 -0.545623 0
8.9869394 -4.4104285 -0.57879084 0
-9.0285635 -4.3391018 -0.5406056 0
8.9602795 -4.351584 -0.53083825 0
8.9561024 -4.2628398 -0.55134952 0
-9.0047779 -4.1052585 -0.57425451 0
3.1365488 -4.1251659 -0.58654791 0
6.6772823 -4.1702609 -0.56676859 0
8.9724646 -4.0837164 -0.55091411 0
8.5204773 -3.9344192 -0.56088424 0
8.983284 -3.9228001 -0.57951087 0
8.9465733 -3.8836617 -0.57473367 0
-8.9964409 -3.719295 -0.5643394 0
8.3834019 -3.7366953 -0.59310818 0
8.971817 -3.7792859 -0.55587751 0
-8.9949837 -3.466243 -0.51712132 0
-9.0049944 -3.3062325 -0.58413154 0
6.8149538 -3.3789847 -0.59231675 0
-9.0005722 -3.2904036 -0.51799673 0
8.4660778 -3.2522416 -0.54025632 0
3.940763 -3.1044326 -0.53358531 0
6.5640903 -3.1547461 -0.57133245 0
3.8684704 -3.0372698 -0.51778722 0
3.948838 -3.0784621 -0.54998577 0
4.0071106 -3.0256407 -0.51584321 0
8.9817362 -3.038909 -0.52456003 0
-8.9844666 -2.987679 -0.55963826 0
3.7124181 -2.9241326 -0.50261188 0
4.0398097 -2.9872258 -0.50422919 0
3.6256361 -2.8554425 -0.5960862 0
6.805799 -2.8669276 -0.58581406 0
8.9834223 -2.845603 -0.50644791 0
-8.9937572 -2.7475047 -0.54110181 0
7.6734552 -2.7303023 -0.55536646 0
8.989255 -2.7899058 -0.55564427 0
-8.9969139 -2.6611171 -0.55796295 0
3.3479495 -2.6256249 -0.51185215 0
8.9843388 -2.6487756 -0.53141582 0
3.1882849 -2.50947 -0.53575981 0
3.2266002 -2.5056531 -0.5308094 0
9.0031605 -2.5156448 -0.5288564 0
3.1834645 -2.4695511 -0.5235433 0
3.2193542 -2.4314609 -0.5309127 0
8.9835367 -2.4972405 -0.54047573 0
-8.9792252 -2.3755672 -0.54653919 0
-2.4877625 -2.3684139 -0.51252288 0
-2.3625901 -2.3958209 -0.59241176 0
3.2796407 -2.385509 -0.52851808 0
8.08146 -2.3395352 -0.5941565 0
8.1937513 -2.3879735 -0.59978449 0
8.9852781 -2.3915687 -0.52214122 0
-2.5344462 -2.2599998 -0.56720674 0
-2.4368255 -2.2677341 -0.50781977 0
-2.2676771 -2.2382951 -0.54743665 0
3.3792655 -2.2157383 -0.513551 0
4.5903111 -2.2775531 -0.5044297 0
7.1446609 -2.299742 -0.56281114 0
8.9847202 -2.2768164 -0.59024483 0
-2.6643028 -2.135366 -0.5017724 0
-2.5714159 -2.183243 -0.51950824 0
-2.1442294 -2.1571488 -0.54908478 0
-2.0693343 -2.1474266 -0.5820294 0
3.461731 -2.1275077 -0.50092191 0
6.1105318 -2.1431568 -0.59712577 0
6.4720793 -2.1304216 -0.56837541 0
8.9837818 -2.1976464 -0.58850229 0
-8.9942036 -2.0343323 -0.59746647 0
-2.6804538 -2.0393472 -0.50517386 0
-2.1288962 -2.0475311 -0.53083438 0
-2.037472 -2.0431068 -0.57073367 0
2.6679199 -2.0748031 -0.59303772 0
6.7871609 -2.0985904 -0.58385849 0
-8.983532 -1.9838542 -0.5533064 0
-5.9707556 -1.9110534 -0.50758898 0
-5.7519469 -1.9045236 -0.54572994 0
-2.8136673 -1.9431536 -0.51656377 0
-2.7853637 -1.9217539 -0.51047742 0
-2.6859703 -1.9484087 -0.53274077 0
-2.1138282 -1.9573321 -0.50385916 0
-2.0506041 -1.9382166 -0.56087893 0
4.8342886 -1.9714763 -0.54444289 0
-9.0437183 -1.8898606 -0.58325189 0
-5.9715323 -1.8740666 -0.55438507 0
-5.8286953 -1.8949316 -0.50780886 0
-5.7447996 -1.8675587 -0.57611728 0
-5.1041527 -1.8343232 -0.52142155 0
-5.0237322 -1.8394313 -0.54309016 0
-4.9961886 -1.8237265 -0.57092851 0
-2.6424503 -1.8362761 -0.51143438 0
-2.1393709 -1.8658459 -0.51870227 0
-2.0059597 -1.8719581 -0.59314537 0
8.9892921 -1.8588779 -0.54611957 0
-5.9775834 -1.7015433 -0.51204455 0
-5.0116487 -1.764466 -0.5734244 0
-4.9995632 -1.7549078 -0.53138196 0
-2.6952615 -1.7788179 -0.58775359 0
-2.5563478 -1.7535677 -0.5406304 0
-2.3190336 -1.7110957 -0.53377539 0
-2.2532098 -1.7374443 -0.52405322 0
-2.1377599 -1.7298568 -0.58616132 0
3.7568169 -1.7438638 -0.57040203 0
7.0156116 -1.7286477 -0.54414624 0
8.2464523 -1.7639098 -0.55706298 0
-2.5351233 -1.6566404 -0.57943189 0
-2.4721084 -1.64475 -0.55939436 0
-2.3806629 -1.6902733 -0.53111857 0
-2.2726765 -1.6358298 -0.57349032 0
-2.1792378 -1.6703116 -0.58170742 0
3.8622441 -1.6207017 -0.53867871 0
5.0641403 -1.6838121 -0.51184481 0
5.1032553 -1.6367171 -0.55082476 0
8.9749451 -1.6453053 -0.55993432 0
-5.0125351 -1.516318 -0.51139873 0
-2.4609518 -1.5805115 -0.58804983 0
-2.3981268 -1.5885152 -0.58335531 0
7.0500336 -1.5496128 -0.5969823 0
8.9792271 -1.505023 -0.59497523 0
-8.9699469 -1.4634528 -0.5802846 0
-5.9903126 -1.4813879 -0.54014325 0
-5.0228653 -1.4419515 -0.54374135 0
8.9768925 -1.4096243 -0.5899052 0
-8.9811125 -1.3645642 -0.52048814 0
5.37707 -1.3022337 -0.57031935 0
7.7085018 -1.3915267 -0.56229889 0
8.9897099 -1.3420609 -0.50364363 0
9.0099974 -1.3212729 -0.52248698 0
-9.0191965 -1.2503829 -0.5929535 0
-5.0334415 -1.2337735 -0.55484486 0
8.9897194 -1.2221498 -0.53133476 0
-5.0451984 -1.1651816 -0.5667069 0
4.2046428 -1.1957045 -0.53986186 0
9.0043526 -1.1544266 -0.548751 0
5.5818529 -1.0462172 -0.55344725 0
5.6256008 -1.0032175 -0.56356746 0
8.99193 -1.0734901 -0.53535557 0
-5.0553999 -0.98283696 -0.50352985 0
5.6677485 -0.95312679 -0.51010555 0
7.1288595 -0.91740656 -0.59960663 0
-9.0142059 -0.88358879 -0.59442604 0
-8.9765072 -0.84209454 -0.54807806 0
5.76016 -0.83241171 -0.52827829 0
6.1828275 -0.88753033 -0.58419371 0
7.1330252 -0.8903985 -0.57054001 0
8.9597931 -0.89046597 -0.58433765 0
4.545352 -0.77797282 -0.56929171 0
5.7896805 -0.78949398 -0.50761062 0
5.8126273 -0.76225156 -0.53292316 0
8.9572496 -0.70656395 -0.58747339 0
4.6559005 -0.64198637 -0.5042482 0
5.6914706 -0.67268515 -0.58503276 0
8.9883671 -0.64605367 -0.5955503 0
-5.0838685 -0.56917441 -0.54557544 0
8.6046238 -0.58939028 -0.59801507 0
8.9839268 -0.57071358 -0.59017301 0
9.0047264 -0.51712728 -0.5399732 0
4.7940578 -0.49785089 -0.53723353 0
4.8113914 -0.43483615 -0.58931428 0
8.5439053 -0.44840908 -0.54249018 0
8.9852734 -0.45267516 -0.59412432 0
-5.1000085 -0.36407185 -0.58472717 0
4.9236641 -0.31932187 -0.53656751 0
-8.9647064 -0.23528659 -0.57283908 0
-5.096468 -0.29506207 -0.5758003 0
4.8990417 -0.29499269 -0.59674621 0
4.9688282 -0.24472684 -0.51670486 0
7.5481396 -0.28207445 -0.59460354 0
-8.972496 -0.15490007 -0.50612026 0
5.0481353 -0.16216595 -0.52951527 0
6.4553037 -0.1842134 -0.59494317 0
-5.1182017 -0.090468645 -0.5389303 0
4.9466162 -0.062655449 -0.56878364 0
-5.1164036 0.02406168 -0.5574888 0
9.0045424 0.13629985 -0.53634751 0
3.7866886 0.28093648 -0.59232777 0
8.9917479 0.22763872 -0.56405544 0
8.9823055 0.45977926 -0.56824481 0
-8.9702759 0.55723417 -0.56095862 0
-6.1541357 0.52012062 -0.58121961 0
-5.1576204 0.5534842 -0.52543682 0
8.4652786 0.56973028 -0.58597851 0
8.9836016 0.52516401 -0.58809811 0
9.0035973 0.57221198 -0.57494962 0
6.9173651 0.64797592 -0.5739907 0
8.8324385 0.68811178 -0.57598668 0
8.9812717 0.64276636 -0.57903099 0
-8.9718866 0.70025921 -0.51120412 0
5.57657 0.77716732 -0.58963436 0
6.0834813 0.76868534 -0.58559155 0
7.6950817 0.79616404 -0.58116287 0
8.9623537 0.75333947 -0.58194792 0
9.0008707 0.73963928 -0.59642583 0
-8.9501324 0.82129258 -0.57538033 0
-5.1728048 0.81930888 -0.51886964 0
5.2163954 0.86243254 -0.58940607 0
7.1630907 0.84192085 -0.58219391 0
8.9403915 0.82580054 -0.59059536 0
9.0164232 0.88644767 -0.52227241 0
-8.949955 0.94169515 -0.53823006 0
-6.1476517 0.95792961 -0.54826695 0
-5.1796689 0.9507854 -0.53577256 0
5.0597343 0.97157693 -0.57654077 0
8.9779491 0.91853809 -0.57684755 0
-6.1492815 1.0786946 -0.55274278 0
-6.0403042 1.099039 -0.50139588 0
-5.1825762 1.0803021 -0.55083179 0
0.86621702 1.0801396 -0.57675433 0
0.93825102 1.0678205 -0.592408 0
1.021472 1.086936 -0.56079501 0
8.987154 1.0681562 -0.58811396 0
9.0047808 1.0709047 -0.56880492 0
-8.9599762 1.1756091 -0.50655341 0
-6.1055274 1.102406 -0.53577435 0
-5.8108969 1.1068115 -0.58272713 0
-5.3260422 1.1381217 -0.56383312 0
-5.2142177 1.1438217 -0.56334138 0
-5.182579 1.1298007 -0.55240721 0
0.78270996 1.128799 -0.57285124 0
0.8490206 1.1450069 -0.55867368 0
0.97110367 1.153666 -0.56494385 0
1.0351118 1.1607186 -0.54075444 0
1.1421101 1.1898453 -0.55157757 0
8.9988174 1.1229897 -0.59972388 0
0.64880073 1.2697339 -0.56764889 0
0.73324138 1.2285635 -0.55403167 0
0.85857916 1.2527869 -0.50527376 0
0.91818625 1.206298 -0.52009565 0
1.2755675 1.2317156 -0.55577642 0
1.3333887 1.2581686 -0.55919212 0
0.76496172 1.3193777 -0.51435935 0
1.3753476 1.332237 -0.55903316 0
-8.9604912 1.4196913 -0.57993639 0
0.65133309 1.4603126 -0.57984102 0
-8.9569893 1.5811937 -0.51256132 0
0.63234472 1.5850668 -0.56730211 0
0.75672001 1.5683964 -0.53257376 0
7.9084096 1.5121725 -0.55736667 0
9.0159283 1.5959787 -0.5289976 0
-2.8343444 1.6726646 -0.56889707 0
-2.7358317 1.6614041 -0.58057678 0
-2.6580689 1.6353238 -0.57300413 0
-2.4851193 1.6996065 -0.57941085 0
0.65897799 1.6269217 -0.56764871 0
0.74248546 1.6450812 -0.53639078 0
1.2285352 1.6944237 -0.51361328 0
7.9347172 1.6971712 -0.54585487 0
-2.843497 1.7748557 -0.52278113 0
-2.7838981 1.7306881 -0.52669078 0
-2.6451573 1.7153109 -0.52742934 0
-2.524852 1.7535572 -0.523965 0
-2.453635 1.7586588 -0.53344822 0
-2.348114 1.7014198 -0.58382279 0
0.75290531 1.7489839 -0.5555346 0
0.91014689 1.7704386 -0.51390648 0
1.2614269 1.758487 -0.54794741 0
8.9654074 1.776556 -0.5799883 0
9.0069065 1.7015033 -0.58741117 0
-2.9282124 1.847285 -0.51904553 0
-2.8765764 1.8143253 -0.57283318 0
-2.4472589 1.8427958 -0.51534593 0
-2.3129253 1.8030221 -0.59124273 0
