# .PCD v0.7 - Point Cloud Data file format
VERSION 0.7
FIELDS x y z intensity
SIZE 4 4 4 4
TYPE F F F F
COUNT 1 1 1 1
WIDTH 1463
HEIGHT 1
VIEWPOINT 0 0 0 1 0 0 0
POINTS 1463
DATA ascii
8.9630337 -1.7057214 2.5039766 0
-9.0313158 -1.4963762 2.4818377 0
3.9070385 -1.4840703 2.4501591 0
8.964056 -1.4963979 2.4841175 0
-9.0277739 -1.3089559 2.499212 0
3.9945683 -1.3848474 2.4143257 0
4.0538611 -1.3072484 2.4527118 0
8.9686079 -1.2816703 2.476872 0
-9.0251579 -1.112931 2.5091341 0
4.1693759 -1.151029 2.4650128 0
4.2459297 -1.0665202 2.4345834 0
8.9711227 -1.1032003 2.4866045 0
-9.030179 -0.91199017 2.5078237 0
4.3482819 -0.93895751 2.4405262 0
4.4349489 -0.84784746 2.4428039 0
8.9668741 -0.91754901 2.4937623 0
-9.0218563 -0.72656167 2.5014431 0
4.523468 -0.72200996 2.4332955 0
4.6115131 -0.605829 2.4150443 0
5.6581354 -0.65122008 2.4328842 0
8.9641991 -0.7044208 2.5198307 0
-9.0181179 -0.54711705 2.5104384 0
4.7112064 -0.49579906 2.4478331 0
8.96033 -0.50471288 2.4836757 0
-9.0192709 -0.32316041 2.5385718 0
4.7881842 -0.35945177 2.5294714 0
4.8830161 -0.28862232 2.430202 0
8.9645681 -0.30138442 2.4747212 0
-9.0122662 -0.080265045 2.5279667 0
4.9435863 -0.1853292 2.4915171 0
8.9629354 -0.10275324 2.4782069 0
9.0099545 -0.1288316 2.4092221 0
-9.0099649 0.14205854 2.5117476 0
8.9658747 0.096982956 2.4901946 0
9.012969 0.12911737 2.4100099 0
-9.0149326 0.31701604 2.4894643 0
8.969985 0.29580283 2.5056322 0
9.0014524 0.32236722 2.4081521 0
-9.0197954 0.50912666 2.5294473 0
8.9692154 0.50465328 2.488153 0
-9.0203857 0.73267478 2.5217829 0
-8.9952011 0.6559186 2.4864964 0
8.9699135 0.69126737 2.4857543 0
-9.0259438 0.89697742 2.5173483 0
8.9683771 0.90455788 2.5051475 0
9.001297 0.88614947 2.4634967 0
-9.0194263 1.0935748 2.5222304 0
-8.9960747 1.1700721 2.4547808 0
8.9723635 1.1101248 2.502888 0
9.0087519 1.1014516 2.4264739 0
-9.0181189 1.3140601 2.4996758 0
8.9698315 1.2944732 2.5105557 0
9.0219574 1.3661368 2.4395671 0
-9.0245371 1.5311663 2.4991195 0
8.9721794 1.5184472 2.5062778 0
9.0082245 1.4962211 2.4413955 0
-9.0179195 1.7231654 2.4904084 0
8.9733953 1.7069659 2.5003731 0
9.0120487 1.6964782 2.4518104 0
-9.0218077 1.9186028 2.4686546 0
8.9784632 1.8825151 2.4990509 0
9.0054064 1.8961366 2.4604518 0
-9.0183544 2.1023066 2.4917634 0
-8.9845171 2.0946949 2.4763474 0
8.9762144 2.0909331 2.5170367 0
9.0098219 2.1000578 2.4734843 0
-9.0144711 2.3052402 2.5002036 0
-8.9942951 2.3404222 2.4703202 0
8.9794083 2.3108108 2.510781 0
9.0034637 2.31703 2.4538052 0
-9.0220413 2.5025208 2.4933779 0
-8.9930916 2.5242391 2.4984655 0
8.9806738 2.5064714 2.5039425 0
9.0148506 2.5008068 2.5303836 0
-9.0130806 2.6927485 2.5004022 0
-8.9915237 2.6729603 2.4641182 0
8.978467 2.7059398 2.4891291 0
9.0083752 2.714751 2.5353179 0
-9.0170774 2.9131606 2.4991195 0
-8.9887161 2.9124911 2.5084329 0
8.9810829 2.8966722 2.5044284 0
9.0075302 2.9488685 2.5293589 0
-9.01262 3.1111679 2.5012927 0
-8.9858465 3.0872793 2.571887 0
8.9799232 3.1136363 2.5049157 0
9.0044746 3.092279 2.4951124 0
-9.0158157 3.2942393 2.4826052 0
-8.9905739 3.3575661 2.5085104 0
8.9812422 3.2975061 2.513546 0
9.010685 3.3051994 2.5757732 0
-9.0168524 3.49209 2.480098 0
-8.9835396 3.5070934 2.5883424 0
8.9852343 3.513082 2.5086319 0
9.013341 3.4841008 2.5172164 0
-9.014739 3.702956 2.4890051 0
-8.9970541 3.6694067 2.5240874 0
8.9837046 3.7099686 2.5052493 0
9.0026779 3.7611365 2.5029213 0
-9.0101976 3.9149504 2.5121326 0
-8.996645 3.9256458 2.5136693 0
8.9860525 3.9182622 2.5104399 0
9.0032072 3.9372985 2.4873784 0
-9.0119133 4.0996261 2.4904962 0
-8.9959259 4.121449 2.4978414 0
8.9858475 4.1097345 2.5206544 0
9.0036745 4.0839639 2.4888492 0
-9.0130701 4.2903433 2.5019507 0
-8.9977283 4.299634 2.5402694 0
1.7489662 4.2851381 2.536947 0
1.9036485 4.2534814 2.5173492 0
2.1098344 4.2519207 2.5495217 0
2.3488851 4.254262 2.5879018 0
2.453403 4.2558069 2.4949527 0
2.703305 4.256825 2.4777703 0
3.1211367 4.2449689 2.5351064 0
3.3330996 4.2563853 2.4875464 0
3.4329548 4.2318234 2.5810056 0
3.618439 4.2661529 2.4866059 0
4.0759444 4.2630234 2.4651744 0
4.2898974 4.2651811 2.4060259 0
4.4363937 4.2635689 2.4494734 0
4.7230477 4.295938 2.4257848 0
8.983592 4.305263 2.5097373 0
9.0050211 4.2492895 2.4982586 0
-9.0092268 4.4915452 2.5077007 0
-8.9955425 4.492135 2.5118506 0
-1.4385047 4.4680839 2.4444444 0
1.745567 4.4809313 2.4957368 0
8.9856682 4.504262 2.5171895 0
9.0043421 4.4942093 2.4813566 0
-9.0099792 4.7003813 2.5012326 0
-8.9943457 4.7132974 2.5173357 0
1.73911 4.6467509 2.4126489 0
8.9842644 4.6969709 2.5204546 0
9.005022 4.7200079 2.4627321 0
-9.0088234 4.9158869 2.5153291 0
-8.9886475 4.9546299 2.4975584 0
1.743156 4.8856225 2.5122707 0
8.98985 4.9105968 2.5029092 0
9.0094099 4.9218369 2.5262523 0
-9.0113173 5.1036525 2.5184238 0
-8.9954004 5.1104445 2.530237 0
1.7449799 5.1153631 2.5099597 0
4.7964411 5.1844697 2.4193282 0
8.9840221 5.0880198 2.4974353 0
9.0058994 5.1201706 2.512361 0
-9.0093632 5.283916 2.5275607 0
-8.9890833 5.274951 2.4948521 0
3.7092323 5.3129416 2.4069846 0
8.9909487 5.2996325 2.4814174 0
9.0049248 5.2762146 2.510905 0
-9.0095339 5.4887733 2.5109577 0
-8.9885397 5.4882107 2.5021312 0
8.9899492 5.5050039 2.482187 0
9.0104628 5.4877033 2.4744825 0
-9.0126581 5.6765103 2.5051451 0
-8.9919128 5.711524 2.5074863 0
8.9905729 5.7134681 2.4918449 0
9.009161 5.6909814 2.4831545 0
-9.0063238 5.8937912 2.502907 0
-8.9906702 5.8988128 2.5147555 0
8.9893351 5.8929973 2.5017722 0
9.0084333 5.9118257 2.4680352 0
-9.0091 6.1133451 2.5002384 0
-8.9891281 6.1056066 2.5085211 0
8.9923964 6.0795169 2.5140092 0
9.0089178 6.0994468 2.4848735 0
-9.0058727 6.3100443 2.4967754 0
-8.9868488 6.3293152 2.5048008 0
8.994544 6.2955837 2.4949217 0
9.0098963 6.3010445 2.5017021 0
-9.007432 6.5098605 2.556294 0
-8.9874887 6.531939 2.4932795 0
8.9917049 6.4952879 2.5174909 0
9.0086775 6.5045023 2.4972379 0
-9.0036774 6.7338781 2.5194497 0
-8.98596 6.7035499 2.5034261 0
8.9924707 6.6853881 2.5138187 0
9.0106821 6.6980443 2.5066798 0
-9.018487 6.9199796 2.492171 0
-8.9853401 6.9054699 2.5018208 0
8.9946575 6.9287472 2.4814603 0
9.0100479 6.9024067 2.506839 0
-9.0155106 7.0939536 2.5140519 0
-8.9831991 7.0986366 2.502106 0
8.9938459 7.1096005 2.4966388 0
9.0082483 7.1176305 2.505383 0
-9.0029945 7.2939973 2.5106623 0
-8.9859066 7.3082194 2.521456 0
8.9956884 7.2876806 2.4949248 0
9.0122099 7.3025613 2.4959738 0
-9.0093117 7.5321302 2.5116458 0
-8.9851856 7.4986486 2.504482 0
8.9944582 7.5004611 2.4916008 0
9.0135651 7.4996567 2.4961016 0
-9.0056639 7.7076626 2.50072 0
-8.9796467 7.7233658 2.5111899 0
8.9930487 7.6851797 2.4771712 0
9.0117531 7.7292085 2.4997911 0
-9.0039864 7.9109788 2.5019128 0
-8.9833488 7.9059615 2.5060527 0
8.9918261 7.9260964 2.4740758 0
9.0138998 7.9129443 2.4938357 0
-9.0417805 8.1587772 2.4988604 0
-8.984889 8.100812 2.4908929 0
8.9822922 8.0776997 2.4925869 0
9.0133963 8.1200047 2.5149448 0
-9.0195236 8.3001308 2.5768819 0
-8.9847364 8.2962284 2.5082293 0
8.9934664 8.2644625 2.5323603 0
9.0178528 8.2969961 2.5090878 0
-9.017168 8.5217686 2.4625854 0
-8.9805651 8.4828968 2.5040834 0
8.9862394 8.4318275 2.496681 0
9.0137796 8.4933186 2.5099027 0
-9.0226774 8.6763935 2.5269189 0
-8.9796019 8.7188139 2.5026169 0
8.996829 8.7158461 2.4321308 0
9.014514 8.6983833 2.5243359 0
-8.9614229 8.9220753 2.4898739 0
-8.6808643 8.9844437 2.4901681 0
-8.4764156 8.9807386 2.4931126 0
-8.2968445 8.9818563 2.4773371 0
-8.151329 8.9758606 2.5233896 0
-7.8992271 8.9749012 2.5108554 0
-7.6703572 8.9775782 2.5125046 0
-7.4617434 8.9822102 2.4984508 0
-7.2589135 8.9757309 2.5058568 0
-7.0709133 8.9800606 2.5302374 0
-6.8873305 8.9811573 2.5046978 0
-6.6807532 8.9741726 2.5116477 0
-6.5205965 8.9818516 2.489975 0
-6.3369737 8.9782915 2.5219636 0
-6.1085258 8.9785252 2.5183992 0
-5.9106007 8.9807558 2.5340779 0
-5.6980691 8.9773331 2.5322437 0
-5.4763317 8.9746046 2.5472066 0
-5.278698 8.971489 2.5203788 0
-5.0908113 8.9805269 2.5119653 0
-4.8822093 8.9720087 2.5283222 0
-4.6995459 8.9721737 2.5086358 0
-4.4798861 8.9696217 2.4722388 0
-4.2849188 8.9712315 2.4571304 0
-4.1271181 8.9718208 2.4606736 0
-3.8957996 8.9794626 2.4881182 0
-3.6327584 8.9705019 2.5411291 0
-3.4721487 8.9606037 2.5743012 0
-3.2944534 8.9727821 2.5831003 0
-3.0651462 8.9875698 2.4261785 0
-2.9308136 8.9744158 2.4376118 0
-2.6985722 8.9842367 2.4605229 0
-2.4772046 8.9814634 2.5005162 0
-2.2691004 8.985404 2.5455713 0
-2.1005287 8.9814672 2.4690168 0
-1.9031277 8.9801188 2.5076485 0
-1.6691778 8.9852591 2.4943943 0
-1.4967055 8.9903879 2.5470636 0
-1.2818253 8.9874964 2.5065551 0
-1.1122124 8.9887285 2.521524 0
-0.92758852 8.99125 2.4981523 0
-0.67182404 8.9948568 2.4982908 0
-0.51836741 8.9948854 2.4905434 0
-0.31437439 8.9908285 2.4999492 0
-0.096080713 8.9955435 2.4575148 0
0.067129776 8.994997 2.4856896 0
0.30277652 8.9927692 2.4714341 0
0.52609879 8.9875784 2.4539943 0
0.70405686 8.9925098 2.4622116 0
0.90511119 8.9887791 2.4673066 0
1.0973495 8.9904451 2.4766569 0
1.2942284 8.9896078 2.4796798 0
1.5098076 8.9905787 2.4882908 0
1.7247406 8.990572 2.5050893 0
1.9360511 8.9927635 2.5082374 0
2.0941849 8.9903116 2.5062983 0
2.3268414 8.9902048 2.4977152 0
2.4844449 8.9924135 2.5119021 0
2.7109849 8.9886618 2.5314553 0
2.9027154 8.9857788 2.4807281 0
3.1004677 8.9865694 2.5006223 0
3.3113074 8.9827299 2.4750319 0
3.4997873 8.9882135 2.4874251 0
3.7073359 8.9846067 2.5014105 0
3.9225836 8.9789495 2.5103178 0
4.1239038 8.9806004 2.5056129 0
4.3062344 8.9775133 2.4961784 0
4.518065 8.978837 2.4905117 0
4.6938291 8.9776535 2.5099289 0
4.9068561 8.9767675 2.5006006 0
5.1090369 8.9740067 2.4969308 0
5.3030152 8.9698029 2.5072548 0
5.4977183 8.9706564 2.5008729 0
5.7020078 8.9699297 2.485832 0
5.8956604 8.9713488 2.5045314 0
6.0814166 8.9672279 2.5000961 0
6.2882996 8.9682693 2.4999213 0
6.4941192 8.9675055 2.5091636 0
6.7035341 8.9629889 2.4991312 0
6.9031858 8.962657 2.491281 0
7.1008124 8.9627562 2.5017405 0
7.3227205 8.9623108 2.4965789 0
7.5119433 8.9577293 2.5012569 0
7.6966467 8.9600315 2.488173 0
7.8989773 8.957778 2.5002849 0
8.0978012 8.9545679 2.4993415 0
8.3107738 8.9560671 2.5137084 0
8.5021935 8.9566698 2.5062966 0
8.693573 8.9534445 2.5170507 0
8.9037104 8.9417133 2.5138617 0
9.0161848 8.9135208 2.4946637 0
-8.868083 9.0410547 2.4955494 0
-8.7005939 9.0439529 2.4879131 0
-8.470273 9.0434818 2.4641571 0
-8.2765331 9.0416679 2.4811454 0
-8.0942469 9.0378428 2.499212 0
-7.8967633 9.0403347 2.4820676 0
-7.6855397 9.0397635 2.4999299 0
-7.5023527 9.0373392 2.5041173 0
-7.2999206 9.0370731 2.5237596 0
-7.0905538 9.0367498 2.5066652 0
-6.8670802 9.0352993 2.5149057 0
-6.6943588 9.0378704 2.5047944 0
-6.4812336 9.0373602 2.4884779 0
-6.3123031 9.0342016 2.5057335 0
-6.1256824 9.0336981 2.5140836 0
-5.9030976 9.0289459 2.5171649 0
-5.6966109 9.0272179 2.504452 0
-5.5097804 9.0311012 2.5127656 0
-5.3030591 9.0272102 2.5101669 0
-5.0950451 9.0301981 2.4962833 0
-4.9126515 9.0291414 2.5345426 0
-4.7047486 9.0238523 2.4984014 0
-4.5069613 9.0272503 2.5286138 0
-4.2815456 9.022974 2.5134466 0
-4.112885 9.0254412 2.5161026 0
-3.8912008 9.0237303 2.4853342 0
-3.7023947 9.0146418 2.4898062 0
-3.4647636 9.020731 2.4678793 0
-3.2836206 9.0184841 2.4618702 0
-3.1104329 9.0173197 2.4669731 0
-2.9173763 9.0206785 2.4553139 0
-2.6937866 9.0131073 2.4560452 0
-2.4794683 9.01616 2.4889514 0
-2.2903001 9.0133123 2.5150764 0
-2.1283281 9.0133619 2.4928336 0
-1.9364606 9.0152187 2.4890149 0
-1.7011402 9.0101805 2.4973943 0
-1.4973083 9.0114279 2.5305738 0
-1.3174164 9.0076971 2.5109797 0
-1.1017871 9.0062952 2.4972227 0
-0.89429796 9.0107765 2.4882369 0
-0.71532953 9.0050411 2.5077901 0
-0.48448437 9.0056887 2.5112958 0
-0.29938662 9.00739 2.5024056 0
-0.11888483 9.0024128 2.5106339 0
0.064750642 9.0078068 2.4483042 0
0.29563966 9.007144 2.43875 0
0.4951928 9.0079155 2.443274 0
0.65969217 9.0115767 2.4658663 0
0.88086212 9.0117989 2.4918792 0
1.1197352 9.0108881 2.5039053 0
1.3016341 9.0082369 2.5056694 0
1.5159154 9.0082684 2.483922 0
1.6980605 9.007288 2.5126557 0
1.9031539 9.0064659 2.485327 0
2.1226394 9.0042505 2.4650545 0
2.2723939 9.0092144 2.4909568 0
2.4834373 9.0102892 2.4967616 0
2.6900887 9.0116329 2.4885368 0
2.8813269 9.0050278 2.4985046 0
3.0355353 9.0004349 2.5714619 0
3.2552536 9.0032234 2.4820943 0
3.5456486 9.0040293 2.5959849 0
3.8433275 9.0093784 2.4329495 0
4.0604196 9.0137386 2.4335032 0
4.5624261 9.008111 2.5126605 0
4.6786127 9.01231 2.5942588 0
7.0087204 9.0033169 2.5358238 0
-6.6497402 -9.0013914 2.6772239 0
-6.3158579 -9.0060749 2.6056514 0
-6.0631332 -9.0013189 2.6825626 0
-5.9189339 -9.0147076 2.6411757 0
-5.679729 -9.01124 2.6622891 0
-5.5202141 -9.0122356 2.6646297 0
-5.3294697 -9.00912 2.6285446 0
-4.2032399 -9.0007248 2.7314761 0
-3.7493513 -9.0027609 2.6471462 0
-3.3537965 -9.0014639 2.6522636 0
-3.0980721 -9.0001335 2.7197416 0
-2.8532045 -9.0030289 2.7692223 0
-2.7062066 -9.0024109 2.7193108 0
-2.461508 -9.0037842 2.6599779 0
-2.3243766 -9.0074892 2.6606836 0
-2.1341836 -9.0074778 2.690196 0
-1.994833 -9.0008907 2.7458308 0
-1.6086414 -9.0016375 2.6509123 0
-1.5277905 -9.0002003 2.7030747 0
-1.3328114 -9.0040617 2.699398 0
-1.0866399 -9.0037785 2.7098 0
-0.92151737 -9.0067215 2.7659068 0
-0.73390788 -9.0035696 2.7353644 0
-0.5368439 -9.0047588 2.6927085 0
-0.30073223 -9.0058451 2.6905739 0
-0.12264961 -9.0059614 2.7154665 0
0.088997982 -9.0041275 2.7051868 0
0.31325132 -9.0022621 2.6810365 0
0.46453735 -9.0056658 2.6540792 0
0.69030374 -9.0050611 2.6589439 0
0.8812685 -9.0036631 2.6704626 0
1.0746258 -9.0043182 2.6684644 0
1.2894742 -9.0126572 2.6817088 0
1.4996618 -9.013566 2.6803653 0
1.7026904 -9.0174303 2.7096593 0
1.9295027 -9.0154133 2.6800001 0
2.0938213 -9.0101995 2.673682 0
2.3174489 -9.0089769 2.6946883 0
2.5123868 -9.0076637 2.7338674 0
2.7165034 -9.0147753 2.692606 0
2.8825607 -9.0115604 2.7333512 0
3.0776186 -9.0081053 2.6968272 0
3.3116405 -9.0321989 2.7150729 0
3.422894 -9.0287209 2.7281218 0
3.694109 -9.0255699 2.6889353 0
3.8494217 -9.020627 2.6938612 0
4.0672626 -9.0220976 2.6931088 0
4.31881 -9.0165529 2.6967196 0
4.5052209 -9.0172911 2.6820323 0
4.7106771 -9.0186501 2.7102878 0
4.8942685 -9.0374002 2.6811039 0
5.06423 -9.0227127 2.7105675 0
5.2833824 -9.0338936 2.7083037 0
5.4904513 -9.0293989 2.7186823 0
5.7160683 -9.0282211 2.7014225 0
5.8991413 -9.0340872 2.6992288 0
6.0860977 -9.031271 2.7146544 0
6.2788038 -9.0292673 2.7016098 0
6.4725475 -9.0291262 2.7037241 0
6.6956229 -9.0310001 2.6841755 0
6.9138107 -9.0316324 2.6950293 0
7.1145253 -9.0336189 2.6918707 0
7.3131075 -9.0298386 2.7068133 0
7.5019107 -9.0320816 2.6923292 0
7.6878409 -9.0344486 2.6946449 0
7.9040537 -9.0332928 2.6890371 0
8.1099262 -9.0369377 2.702564 0
8.2851648 -9.0336609 2.7008963 0
8.4935055 -9.0355034 2.6983252 0
8.699585 -9.036727 2.7176259 0
8.8638363 -9.0352383 2.7060943 0
-9.0618563 -8.8941765 2.6990697 0
-8.9066963 -8.9409084 2.6653292 0
-8.7026157 -8.9478178 2.6676333 0
-8.4962215 -8.9553671 2.6628022 0
-8.3076706 -8.9541035 2.6802838 0
-8.106349 -8.9499769 2.687454 0
-7.8863206 -8.9501162 2.6873825 0
-7.6793094 -8.957159 2.6783249 0
-7.4798393 -8.9492121 2.6880329 0
-7.2734785 -8.9541874 2.6678531 0
-7.096559 -8.9606638 2.6785111 0
-6.8940539 -8.9571981 2.6737792 0
-6.6705337 -8.9562635 2.7083466 0
-6.4884896 -8.9524603 2.7003875 0
-6.2886534 -8.9683237 2.7116442 0
-6.0976744 -8.9706268 2.7039576 0
-5.9038444 -8.9654217 2.6963494 0
-5.6861434 -8.9698448 2.6962686 0
-5.490901 -8.9706745 2.6829619 0
-5.3193231 -8.9699774 2.6759179 0
-5.1395049 -8.976963 2.7112188 0
-4.9060698 -8.9769011 2.7253604 0
-4.7178693 -8.9801035 2.7171171 0
-4.4986091 -8.9785681 2.704833 0
-4.2744613 -8.9804535 2.7166555 0
-4.0775485 -8.9805412 2.7069128 0
-3.9024141 -8.976655 2.7058084 0
-3.7103202 -8.9790974 2.7072556 0
-3.5003822 -8.9783087 2.7140055 0
-3.3009107 -8.9779778 2.7213604 0
-3.1062605 -8.9786768 2.7037544 0
-2.8936119 -8.9789314 2.7126577 0
-2.6907988 -8.9820185 2.7083123 0
-2.5114942 -8.9826355 2.6955159 0
-2.3161032 -8.9820757 2.7038748 0
-2.1330681 -8.9846239 2.6955943 0
-1.9072245 -8.9842157 2.6861067 0
-1.6948534 -8.9852333 2.6884387 0
-1.4944534 -8.986495 2.7081933 0
-1.2984113 -8.986743 2.7063065 0
-1.1014942 -8.9857121 2.7200673 0
-0.90622085 -8.9870043 2.7172623 0
-0.7118116 -8.9873571 2.719244 0
-0.49262542 -8.9844389 2.7069666 0
-0.29793066 -8.9885349 2.7086003 0
-0.10927901 -8.9891977 2.7068281 0
0.093306936 -8.9899511 2.6858475 0
0.29258731 -8.9904757 2.6795273 0
0.49369511 -8.9905186 2.6744041 0
0.67596364 -8.990941 2.6687994 0
0.88379711 -8.9919758 2.7001615 0
1.0962149 -8.9931946 2.6839056 0
1.3181612 -8.9899359 2.6785972 0
1.5006262 -8.99547 2.7076683 0
1.7057045 -8.9942112 2.6650558 0
1.8990315 -8.9946957 2.6676183 0
2.1038499 -8.995369 2.6715524 0
2.2711663 -8.9951458 2.6691406 0
2.4943731 -8.9966211 2.6674452 0
2.6614833 -8.9921236 2.682404 0
2.8975174 -8.9938822 2.6996372 0
3.0091143 -8.9986744 2.7751729 0
3.2588418 -8.9961672 2.776036 0
8.9259214 -8.8807001 2.7180479 0
-9.0677299 -8.6738853 2.7101533 0
8.9287024 -8.7081804 2.7153699 0
-9.0665388 -8.4791336 2.7195227 0
8.9289074 -8.497345 2.686897 0
-9.0683498 -8.2921753 2.7076943 0
8.9266253 -8.2968493 2.6854513 0
-9.0632153 -8.0953617 2.7056584 0
8.9334736 -8.0984964 2.7068305 0
-9.0662117 -7.8871922 2.6998496 0
8.9327631 -7.8985195 2.7177281 0
-9.0639353 -7.6815619 2.7005053 0
8.9367313 -7.6922274 2.7090971 0
-9.0625753 -7.4777846 2.701194 0
8.9437647 -7.4892373 2.6864319 0
-9.0628338 -7.2927613 2.6920633 0
8.9393358 -7.2979121 2.6858263 0
-9.0628271 -7.109118 2.6980696 0
8.9379644 -7.0802732 2.7150364 0
-9.0598764 -6.9100547 2.6960585 0
8.9396172 -6.8914142 2.7141583 0
-9.0588989 -6.7188325 2.6818616 0
8.9421577 -6.6879435 2.6927638 0
-9.0564356 -6.5103803 2.6909215 0
8.9433422 -6.4832101 2.7004135 0
-9.0564651 -6.3115001 2.7079117 0
8.9461927 -6.3021631 2.6983411 0
-9.05653 -6.1114807 2.7033026 0
8.9415922 -6.1066318 2.7021024 0
-9.0568209 -5.9012041 2.7156706 0
8.9479008 -5.9224625 2.7161019 0
-9.0501432 -5.7197366 2.7162883 0
8.9461212 -5.7182622 2.7014334 0
-9.0531406 -5.5018182 2.7090979 0
8.950325 -5.4959598 2.7068067 0
-9.0522051 -5.2955866 2.7150033 0
8.9485693 -5.2955513 2.6983709 0
-9.0486469 -5.1077714 2.7284374 0
8.9497271 -5.0917516 2.6957467 0
-9.0500154 -4.8897877 2.7230513 0
8.9483709 -4.8958631 2.6961067 0
-9.0519257 -4.6956463 2.7093198 0
8.9534836 -4.6947765 2.7084844 0
-9.0488596 -4.5019913 2.7104456 0
8.9527073 -4.5033464 2.6973004 0
-9.0505667 -4.3036838 2.7056189 0
8.9526844 -4.2964888 2.7000136 0
-9.0482063 -4.0961118 2.6964047 0
8.9547625 -4.1086478 2.6813309 0
-9.0449409 -3.9026201 2.7065403 0
8.9590187 -3.889385 2.6834469 0
-9.0459175 -3.7034018 2.6967118 0
8.9565182 -3.6917717 2.6956425 0
-9.0445108 -3.4825323 2.6943753 0
8.956892 -3.483942 2.6835763 0
-9.0423031 -3.3018689 2.7058611 0
8.9578171 -3.3304908 2.7026012 0
-9.0430479 -3.1034846 2.6972237 0
8.9622078 -3.1290221 2.6764216 0
-9.0363503 -2.9048252 2.7067742 0
8.9602165 -2.8966296 2.7272785 0
-9.0385914 -2.6946275 2.7005551 0
8.9652262 -2.6888378 2.7064815 0
-9.0432348 -2.5055571 2.7090254 0
8.9659691 -2.4594502 2.7171156 0
-9.0366392 -2.3007329 2.6957591 0
8.9676619 -2.3117268 2.6996677 0
-9.036623 -2.0942917 2.6980987 0
8.9686804 -2.1069052 2.7059965 0
-9.0326138 -1.8878748 2.7034855 0
8.9608278 -1.9069004 2.7179782 0
-9.0352783 -1.697857 2.6927173 0
8.9589567 -1.6841207 2.7164488 0
-9.0356407 -1.5002065 2.6906664 0
8.9582977 -1.4901811 2.7275822 0
-9.0369053 -1.3128916 2.6757371 0
8.9549952 -1.2941341 2.7184532 0
-9.0317688 -1.1035451 2.6786556 0
8.9565506 -1.0992688 2.7095876 0
-9.0263062 -0.85836172 2.7007432 0
8.9627771 -0.89126217 2.7141073 0
-9.0210056 -0.66613197 2.682852 0
8.9626808 -0.67754084 2.7086782 0
-9.0153656 -0.48215333 2.7009215 0
8.9655924 -0.49356934 2.6838036 0
-9.0229578 -0.31261474 2.7204726 0
8.9653788 -0.29213452 2.6902833 0
-9.0221243 -0.11139355 2.7085128 0
8.9699659 -0.095600799 2.6916997 0
-9.0226364 0.092610471 2.6994567 0
8.9659567 0.10199273 2.6865399 0
-9.0195246 0.30053461 2.6923604 0
-8.997715 0.35123396 2.602138 0
8.9672489 0.31760317 2.6910071 0
-9.0202761 0.50242066 2.6910281 0
-8.9961271 0.57298708 2.6657186 0
8.9720154 0.50370485 2.6795363 0
-9.0227518 0.65696716 2.6820962 0
8.9702873 0.68571687 2.6849043 0
-9.0162687 0.89184999 2.7090809 0
8.9712639 0.89040273 2.6823428 0
9.0088758 0.98223066 2.6569672 0
-9.01933 1.1269145 2.7079239 0
8.9737101 1.102658 2.662992 0
-9.0181246 1.327071 2.7139313 0
8.9739704 1.294968 2.6642835 0
-9.019639 1.5305408 2.6992884 0
-8.9985561 1.5444553 2.7228289 0
8.974782 1.4956837 2.6726949 0
9.0005417 1.4719188 2.7007203 0
-9.0174646 1.7282079 2.6877613 0
-8.9889126 1.7846327 2.7525144 0
8.9741745 1.694755 2.6608024 0
-9.0176868 1.8948804 2.6743546 0
8.977355 1.901872 2.674907 0
9.0044346 1.8904567 2.68733 0
-9.0232353 2.1097441 2.679219 0
-8.9979753 2.1324201 2.6062474 0
8.9756613 2.094234 2.672806 0
-9.0198727 2.2984047 2.6923082 0
8.9769354 2.305743 2.6743431 0
9.0004911 2.2534394 2.6673338 0
-9.0172873 2.4819925 2.6790414 0
8.9797029 2.5007055 2.6685898 0
-9.018383 2.6805081 2.6971624 0
-8.9958715 2.735213 2.6475723 0
8.9766207 2.6967201 2.6949801 0
9.0064631 2.721101 2.6211605 0
-9.0211849 2.9093063 2.6975939 0
8.9773445 2.8890166 2.6805103 0
9.0011749 2.9165337 2.6334422 0
-9.0138559 3.1055238 2.6870005 0
8.9793272 3.098731 2.6902733 0
9.0013027 3.0041304 2.7792723 0
-9.0143833 3.2759945 2.6883829 0
8.9852123 3.3154325 2.6984494 0
9.0017233 3.335988 2.6925592 0
-9.0161648 3.4996736 2.7053876 0
-8.9951191 3.4630127 2.6598024 0
8.9802141 3.5033836 2.6963482 0
9.0050611 3.5085132 2.6966085 0
-9.0148153 3.6846874 2.7171795 0
-8.9917078 3.6895998 2.6600769 0
8.9807415 3.7039464 2.7046082 0
9.0057716 3.7114036 2.6530988 0
-9.0136786 3.9147863 2.7080247 0
-8.9939289 3.8643134 2.6691258 0
8.9825039 3.9017065 2.6973865 0
9.0111494 3.8794854 2.6707497 0
-9.0134897 4.120739 2.7039175 0
-8.9966555 4.0789132 2.7018085 0
8.9827003 4.106698 2.7037554 0
9.005125 4.0548663 2.7008219 0
-9.011095 4.2928057 2.7070851 0
-8.9822836 4.295445 2.6965477 0
2.2812076 4.2526989 2.6346507 0
2.7074516 4.2478209 2.65274 0
3.0761309 4.2536087 2.6195812 0
4.1371803 4.2387176 2.6905892 0
8.9864302 4.3107033 2.7021093 0
9.0077209 4.309948 2.698472 0
-9.0085697 4.5153737 2.7017045 0
-8.9907827 4.5025063 2.7179074 0
1.7454505 4.5495033 2.6029685 0
8.9873228 4.52492 2.7018588 0
9.0069151 4.4969997 2.6572764 0
-9.0107965 4.7176557 2.711441 0
-8.9952402 4.717453 2.7002645 0
1.7588589 4.7068887 2.6219933 0
8.9838295 4.7189183 2.6976826 0
9.0068445 4.7133088 2.6792464 0
-9.0089073 4.8719802 2.6970966 0
-8.9917822 4.9253001 2.7147961 0
1.7574296 4.884655 2.65184 0
8.985177 4.8985915 2.7013793 0
9.0058556 4.8809791 2.7076209 0
-9.005372 5.0838804 2.6925547 0
-8.9929924 5.1243067 2.7034233 0
1.7482023 5.0318818 2.6494288 0
8.9855452 5.0970888 2.7050683 0
9.0075178 5.0816031 2.6759064 0
-9.0088692 5.3039942 2.6849544 0
-8.9916334 5.2987046 2.7092385 0
8.9906168 5.3131118 2.7101226 0
9.0062037 5.3145714 2.6881766 0
-9.0093489 5.4964886 2.6972711 0
-8.9917202 5.4915843 2.7025959 0
8.9914923 5.4897609 2.7049479 0
9.0047522 5.506793 2.711827 0
-9.0121241 5.6699252 2.6775639 0
-8.9917727 5.7005548 2.6847289 0
8.9925394 5.6868563 2.720788 0
9.0042906 5.717566 2.6888421 0
-9.0060139 5.890347 2.6595395 0
-8.9908819 5.893239 2.6788783 0
8.9942656 5.9014444 2.7154622 0
9.0101643 5.8765106 2.7399549 0
-9.0094757 6.1038113 2.6498508 0
-8.9914312 6.084208 2.7003479 0
8.9923944 6.1100788 2.712719 0
9.0049715 6.0845585 2.707242 0
-9.0074577 6.289567 2.6799753 0
-8.9923134 6.3038249 2.6607337 0
8.9939938 6.3234735 2.7110171 0
9.0080462 6.3166256 2.7253692 0
-9.0085487 6.4613709 2.6952589 0
-8.9886389 6.5164905 2.6599936 0
8.9916496 6.5302911 2.7315872 0
9.0056906 6.5208087 2.7136424 0
-9.0076475 6.6769242 2.7012155 0
-8.985198 6.709373 2.7007325 0
8.9919462 6.7418461 2.7364116 0
9.0102835 6.6918178 2.6886227 0
-9.0071964 6.8922896 2.6917241 0
-8.9863138 6.8768544 2.6702018 0
8.9898319 6.9423079 2.7077391 0
9.0147209 6.8672071 2.7061324 0
-9.0056581 7.0779672 2.7040446 0
-8.9875021 7.1117592 2.6631343 0
8.9909277 7.0990915 2.7314627 0
9.0141077 7.0813317 2.6957021 0
-9.006835 7.2772741 2.7293277 0
-8.9871588 7.3173709 2.6934609 0
8.9881411 7.3402448 2.7452552 0
9.0138912 7.3102593 2.684247 0
-9.0042019 7.5168762 2.6850104 0
-8.9855814 7.5064526 2.6983635 0
8.9955692 7.4947724 2.6972117 0
9.0095463 7.5112739 2.6940885 0
-9.0148287 7.6821404 2.7304993 0
-8.9889393 7.7204146 2.6782947 0
8.9937677 7.7166677 2.7276709 0
9.0167046 7.698863 2.7016263 0
-9.0047121 7.8513713 2.680557 0
-8.9855108 7.9305091 2.7092807 0
8.9966326 7.9258637 2.6955013 0
9.0117798 7.8923826 2.6989088 0
-8.9836941 8.1136656 2.6922936 0
8.9793253 8.1263275 2.6769617 0
9.0144453 8.0962696 2.7189968 0
-9.0020037 8.3320799 2.6899559 0
-8.9877234 8.3189774 2.6845708 0
8.996788 8.287775 2.7401228 0
9.0137959 8.3029404 2.7079628 0
-9.0011282 8.4263935 2.7402847 0
-8.9857635 8.5207663 2.6865659 0
8.9819498 8.48841 2.7103872 0
9.0153208 8.5001783 2.7021878 0
-9.0021553 8.6864901 2.6906426 0
-8.9806499 8.6929483 2.6742604 0
8.975975 8.6597519 2.7111638 0
9.0167284 8.6959105 2.6991458 0
-9.0083027 8.9067717 2.7243679 0
-8.9660854 8.9246311 2.6795201 0
-8.7126942 8.9733648 2.6901567 0
-8.4897537 8.9818516 2.695291 0
-8.2883778 8.9713163 2.6966121 0
-8.0773125 8.9785213 2.7024772 0
-7.8544641 8.9789019 2.7081692 0
-7.6528401 8.973876 2.7089641 0
-7.5155268 8.9710884 2.7282429 0
-7.3482251 8.9745493 2.723393 0
-7.1351776 8.9771452 2.7313046 0
-6.9301605 8.978219 2.7434304 0
-6.7199936 8.9688396 2.7345088 0
-6.4939971 8.9721794 2.7133653 0
-6.2545953 8.9666519 2.6884983 0
-6.0433645 8.9617271 2.6834512 0
-5.8480296 8.9684381 2.7090418 0
-5.6762981 8.968708 2.6825385 0
-5.5279412 8.9687853 2.6946025 0
-5.3362575 8.965456 2.7069035 0
-5.1175246 8.9717188 2.6895406 0
-4.8989615 8.9690714 2.7048886 0
-4.678719 8.9714546 2.7064633 0
-4.4553843 8.9647455 2.7114041 0
-4.2763586 8.9761114 2.6688573 0
-4.1333122 8.961977 2.7248919 0
-3.9081662 8.9582119 2.7505913 0
-3.7663169 8.9449768 2.7951086 0
-3.5039482 8.9722538 2.7739487 0
-3.2911744 8.9728203 2.6087604 0
-3.0911992 8.9729996 2.6265516 0
-2.8607204 8.968051 2.6640866 0
-2.6927922 8.9749155 2.7272084 0
-2.4934018 8.9656296 2.7425385 0
-2.2801287 8.9695444 2.7841723 0
-2.0894904 8.9926624 2.643719 0
-1.9495039 8.9711332 2.6648843 0
-1.7415745 8.9901628 2.704041 0
-1.5477604 8.9871492 2.6997793 0
-1.3328974 8.9883852 2.7243497 0
-1.1093282 8.9894524 2.7276156 0
-0.92437661 8.9925203 2.6999891 0
-0.70493585 8.9902258 2.7238817 0
-0.49434218 8.993063 2.7061045 0
-0.29052812 8.9888983 2.7179179 0
-0.086289525 8.9939995 2.7168202 0
0.11118747 8.9848051 2.6957493 0
0.26952872 8.9860325 2.7185495 0
0.50359046 8.9858322 2.6939387 0
0.71038878 8.9853792 2.7112222 0
0.91694289 8.9890862 2.7022836 0
1.1291049 8.9855881 2.6928759 0
1.3155026 8.9862967 2.6984465 0
1.4953253 8.9834633 2.6974981 0
1.6935716 8.9776545 2.6924119 0
1.8853724 8.9846306 2.6926217 0
2.0900347 8.9819632 2.6800761 0
2.3085015 8.9775181 2.6631176 0
2.4910095 8.9857359 2.6958835 0
2.7166638 8.9856768 2.7006514 0
2.9013164 8.9839211 2.7134957 0
3.1094875 8.9803419 2.6900041 0
3.3064506 8.9747276 2.6941688 0
3.4646206 8.9814034 2.7000835 0
3.708308 8.9774866 2.6938109 0
3.9064121 8.9769869 2.7214634 0
4.1171989 8.9748135 2.6976316 0
4.2943673 8.9771061 2.6793239 0
4.4858212 8.9763308 2.6830177 0
4.7015171 8.9736338 2.6775746 0
4.8976259 8.9725246 2.6941543 0
5.0880952 8.9729624 2.6757827 0
5.2853408 8.9694843 2.689234 0
5.4789305 8.9655914 2.6747527 0
5.6862497 8.9661312 2.6795132 0
5.89364 8.9645319 2.6755304 0
6.1016693 8.9685888 2.6784618 0
6.3101664 8.9588747 2.674768 0
6.4922638 8.9592447 2.6768672 0
6.698041 8.9611235 2.6761022 0
6.8973475 8.9617071 2.6751947 0
7.0913177 8.963707 2.6891468 0
7.2804394 8.9561815 2.6806777 0
7.4836802 8.9556665 2.6896727 0
7.6944184 8.9549055 2.6676397 0
7.888381 8.9577408 2.6957872 0
8.0917749 8.9520407 2.6886687 0
8.3050337 8.9540682 2.6933053 0
8.493331 8.9510174 2.6928973 0
8.6986952 8.9542646 2.6969821 0
8.9082632 8.9395666 2.6942406 0
9.0126839 8.8943396 2.6804383 0
-8.9215965 9.0382195 2.6805131 0
-8.7315311 9.0408688 2.6895673 0
-8.5194893 9.0399761 2.6714876 0
-8.293231 9.0409422 2.6646082 0
-8.0928984 9.0416269 2.676868 0
-7.8787289 9.0382652 2.6855452 0
-7.7026358 9.0372028 2.6701288 0
-7.5044088 9.0390873 2.7009475 0
-7.3081746 9.0357447 2.7087071 0
-7.1023006 9.037364 2.7012849 0
-6.9084311 9.0352716 2.6893198 0
-6.6946721 9.0320206 2.6842985 0
-6.4946227 9.0328245 2.6939585 0
-6.2985125 9.0343895 2.7043734 0
-6.1004643 9.0342112 2.7005401 0
-5.9100609 9.0322065 2.7101789 0
-5.6854916 9.0329676 2.7041304 0
-5.482523 9.0291929 2.7154372 0
-5.2739024 9.0257177 2.6812849 0
-5.0910125 9.02841 2.7037306 0
-4.9149408 9.0282516 2.6846433 0
-4.7177768 9.0232134 2.6876192 0
-4.4821401 9.02211 2.6719246 0
-4.3210483 9.0159445 2.7143466 0
-4.1192822 9.0185194 2.7039268 0
-3.9201343 9.0189409 2.673842 0
-3.6831117 9.0121708 2.7112057 0
-3.5029531 9.0222626 2.6439214 0
-3.323446 9.0176859 2.7225511 0
-3.1034679 9.016901 2.7062242 0
-2.890183 9.0118895 2.7136827 0
-2.6769893 9.0130739 2.698046 0
-2.485477 9.014286 2.7146428 0
-2.2798059 9.0149212 2.6824799 0
-2.1132805 9.0047865 2.7016649 0
-1.9105924 9.0084486 2.6800137 0
-1.7166823 9.0107327 2.6815491 0
-1.4753916 9.0045347 2.7168717 0
-1.2799958 9.0076504 2.7153583 0
-1.1065578 9.003109 2.7234137 0
-0.86398691 9.0052605 2.7779763 0
-0.73618007 9.0036039 2.7135644 0
-0.52687848 9.0051928 2.7386968 0
-0.31122443 9.0053244 2.7392972 0
-0.10209367 9.0055962 2.7419987 0
0.099806964 9.006073 2.72984 0
0.32691887 9.0051918 2.7326641 0
0.49307418 9.0114994 2.766156 0
0.66977525 9.0005102 2.7740903 0
0.9137705 9.0041418 2.7687454 0
1.1401377 9.0067663 2.7227993 0
1.2796912 9.0232668 2.6411815 0
1.5027612 9.01332 2.6598952 0
1.6977946 9.0149603 2.6660554 0
1.8911487 9.0166397 2.7258017 0
2.0930367 9.0034256 2.6583714 0
2.3076665 9.0082817 2.6787612 0
2.5165136 9.0037241 2.6655464 0
2.6102529 9.0026293 2.6965339 0
2.9150672 9.0060787 2.684052 0
3.0945663 9.0130386 2.679595 0
3.2589965 9.0020142 2.6911385 0
3.511224 9.0062513 2.7058964 0
3.6547804 9.0024071 2.7611077 0
3.8882456 9.0053406 2.7175252 0
4.0250235 9.0053892 2.6562066 0
4.2080827 9.0085144 2.750072 0
4.5238123 9.0055914 2.7209363 0
4.9126501 9.0004654 2.6814482 0
5.1211638 9.0116596 2.6668558 0
5.5368128 9.0124617 2.7962444 0
5.7630329 9.0049553 2.703166 0
7.2338238 9.0013208 2.6024513 0
-5.0293803 -9.0016737 2.9621937 0
-3.4282985 -9.0028658 2.9314616 0
-3.1135149 -9.0032444 2.9390581 0
-2.9248788 -9.0038433 2.9760561 0
-2.6744585 -9.0155716 2.9500782 0
-2.5750775 -9.0053644 2.8956702 0
-2.330627 -9.0085564 2.9587748 0
-2.0407553 -9.0079775 2.932066 0
-1.8409712 -9.0093889 2.9379237 0
-1.6779093 -9.007349 2.9407761 0
-1.4638129 -9.0063572 2.9037495 0
-1.3068917 -9.0056038 2.8965714 0
-1.1308113 -9.0111122 2.8880949 0
-0.86344057 -9.0063219 2.9126358 0
-0.75539106 -9.005928 2.9715345 0
-0.52164751 -9.0054026 2.876344 0
-0.33859771 -9.003767 2.8903325 0
-0.10474337 -9.0064964 2.8531296 0
0.054644901 -9.0055485 2.9122818 0
0.3151893 -9.0036821 2.880662 0
0.5129621 -9.0024805 2.8892431 0
0.69150257 -9.0037708 2.8613112 0
0.85884619 -9.0058231 2.9008763 0
1.0799561 -9.0033388 2.9150674 0
1.3533481 -9.0063381 2.9408658 0
1.5256662 -9.0042763 2.9243429 0
1.7324643 -9.0048208 2.9373777 0
1.9044098 -9.005969 2.9199464 0
2.1106188 -9.0201311 2.8475862 0
2.3095417 -9.0245628 2.8875966 0
2.4799879 -9.0157404 2.9006994 0
2.6836863 -9.0222912 2.8986106 0
2.903537 -9.0183544 2.8674998 0
3.1133916 -9.0256681 2.8592196 0
3.3076057 -9.0187387 2.8647106 0
3.517225 -9.0112257 2.8852654 0
3.6844325 -9.0163507 2.8827293 0
3.8729346 -9.0166864 2.8929684 0
4.0812345 -9.0359764 2.9140699 0
4.3372321 -9.0224152 2.8843427 0
4.5406713 -9.0320282 2.9534855 0
4.7062016 -9.0257521 2.8891821 0
4.8934956 -9.0272923 2.8926361 0
5.0848675 -9.026453 2.8977842 0
5.321146 -9.0219107 2.9114068 0
5.4944072 -9.021266 2.8877184 0
5.7239752 -9.0268812 2.8945343 0
5.8965592 -9.0231237 2.9084961 0
6.0882349 -9.0314655 2.918283 0
6.2906666 -9.0259094 2.9369316 0
6.4939399 -9.0290318 2.9264653 0
6.6995935 -9.0263691 2.9220579 0
6.9054804 -9.0308599 2.9321208 0
7.1016927 -9.0286961 2.9493675 0
7.3039489 -9.0274801 2.9635303 0
7.4689064 -9.0337753 2.9249508 0
7.6991363 -9.0301886 2.8905203 0
7.8893347 -9.0309296 2.9128158 0
8.1043968 -9.0287132 2.8762076 0
8.3146677 -9.0323009 2.9016461 0
8.522543 -9.0321331 2.9159093 0
8.7018156 -9.0337181 2.8985722 0
8.8879509 -9.0371561 2.8890097 0
-9.0606728 -8.8912058 2.8935027 0
-8.8891687 -8.9483709 2.8971827 0
-8.689291 -8.9442768 2.9002569 0
-8.4862795 -8.9444151 2.9074783 0
-8.2951889 -8.9421406 2.8940759 0
-8.085804 -8.9391832 2.9107392 0
-7.8927541 -8.9356079 2.9221551 0
-7.7257714 -8.9442015 2.9083285 0
-7.5138679 -8.9444208 2.9264309 0
-7.2866249 -8.9556074 2.9308636 0
-7.117321 -8.9544392 2.9187574 0
-6.9260788 -8.95154 2.9167814 0
-6.7190194 -8.9545841 2.920311 0
-6.4934144 -8.9571171 2.9223218 0
-6.2713137 -8.957386 2.927181 0
-6.1182423 -8.9612246 2.9041765 0
-5.901402 -8.9681435 2.9127195 0
-5.7166591 -8.966156 2.8674316 0
-5.5116787 -8.974329 2.9006279 0
-5.3171535 -8.976182 2.9085846 0
-5.1308684 -8.9772644 2.8927593 0
-4.8898401 -8.9722652 2.8991613 0
-4.6902809 -8.9745607 2.9024396 0
-4.4985604 -8.9742937 2.9040306 0
-4.2970567 -8.9760485 2.8758426 0
-4.1060281 -8.9785576 2.8879969 0
-3.8909221 -8.9768867 2.8755922 0
-3.719569 -8.9799757 2.8634424 0
-3.5056465 -8.9793921 2.8547857 0
-3.2879393 -8.9846764 2.8993742 0
-3.109719 -8.9824553 2.8625724 0
-2.9109073 -8.9838705 2.8966911 0
-2.6918299 -8.9829912 2.9017847 0
-2.4887667 -8.9840193 2.9023573 0
-2.3169918 -8.9824743 2.9062107 0
-2.1073492 -8.9851665 2.8965876 0
-1.9155959 -8.9811077 2.8894887 0
-1.706156 -8.983511 2.8818021 0
-1.4974213 -8.9799814 2.8905287 0
-1.304023 -8.9849491 2.9072349 0
-1.0967376 -8.9851255 2.8958611 0
-0.90347642 -8.9855185 2.9045391 0
-0.67793 -8.9881725 2.9000566 0
-0.49122003 -8.9868097 2.8864665 0
-0.3062667 -8.9867659 2.9040744 0
-0.11430527 -8.9885683 2.909107 0
0.10974251 -8.9914665 2.8817668 0
0.30607921 -8.9914913 2.8880622 0
0.49016356 -8.9907961 2.8974836 0
0.68276465 -8.9914551 2.9007607 0
0.88449454 -8.9918003 2.8977509 0
1.1091682 -8.9919491 2.9116592 0
1.2939883 -8.992672 2.9278111 0
1.5235163 -8.9981499 2.9375381 0
1.7102653 -8.9917364 2.9149401 0
1.920819 -8.9914494 2.9243717 0
2.0809569 -8.9866762 2.8616629 0
2.3005929 -8.9969282 2.8540936 0
2.6266651 -8.996686 2.8962159 0
2.9647655 -8.9892168 2.8678315 0
3.2335143 -8.9987831 2.8718119 0
8.9262228 -8.8839245 2.9008691 0
-9.0741138 -8.7251015 2.8721247 0
8.9306192 -8.7030754 2.9171364 0
-9.0729828 -8.527504 2.8919811 0
8.9306002 -8.5022182 2.9058123 0
-9.0762463 -8.3169651 2.8990254 0
8.9287395 -8.2880011 2.8788667 0
-9.0736046 -8.1121225 2.8981063 0
8.9310637 -8.0925283 2.8704846 0
-9.0671968 -7.9031811 2.9078107 0
8.9283543 -7.9230447 2.9070718 0
-9.0696306 -7.6918631 2.905092 0
8.9308043 -7.7167616 2.8953674 0
-9.0702896 -7.4986429 2.8929143 0
8.9365549 -7.5210614 2.8869779 0
-9.0671501 -7.2761698 2.8889511 0
8.9355145 -7.2937732 2.8870831 0
-9.0616093 -7.1000032 2.8919744 0
8.9325571 -7.0998044 2.8982191 0
-9.0652285 -6.8830066 2.9011281 0
8.9347353 -6.9099107 2.9091761 0
-9.0636358 -6.697928 2.9124308 0
8.9365349 -6.6988587 2.9026949 0
-9.0650606 -6.4948597 2.898067 0
8.9367113 -6.481792 2.8977404 0
-9.0593424 -6.2974095 2.9164257 0
8.9415808 -6.296721 2.9165084 0
-9.0571918 -6.1031866 2.9002845 0
8.9369421 -6.0962682 2.9150839 0
-9.0574436 -5.9116778 2.9078822 0
8.9370928 -5.9119973 2.9000719 0
-9.0574198 -5.6871271 2.8971643 0
8.9414282 -5.6991901 2.895283 0
-9.0575743 -5.4860344 2.9029739 0
8.9387321 -5.4851427 2.8943405 0
-9.0538273 -5.3040962 2.8916793 0
8.9394188 -5.2823811 2.9191425 0
-9.0519476 -5.1048565 2.9052649 0
8.9482632 -5.0846334 2.9033878 0
-9.0498734 -4.8957229 2.9045076 0
8.93752 -4.8720541 2.916002 0
-9.0544605 -4.7123361 2.9065719 0
8.9429646 -4.6832433 2.8819172 0
-9.050602 -4.508812 2.8860638 0
8.9406691 -4.4842706 2.9118114 0
-9.0513754 -4.3067036 2.885329 0
8.9446926 -4.2836795 2.9077203 0
-9.0463591 -4.1159081 2.8862829 0
8.9442453 -4.0977197 2.8911078 0
-9.0460806 -3.9192379 2.8958564 0
8.9377155 -3.8993218 2.9242558 0
-9.0452461 -3.7080896 2.9001861 0
8.9489698 -3.7128694 2.9181092 0
-9.0414677 -3.5096376 2.9128506 0
8.9491577 -3.5043178 2.9246449 0
-9.0409584 -3.296304 2.9121249 0
8.9550905 -3.2976089 2.9187722 0
-9.0393505 -3.1055119 2.9101918 0
8.9532843 -3.103426 2.9003029 0
-9.037447 -2.8911591 2.9150529 0
8.9526358 -2.9163206 2.8908036 0
-9.0354357 -2.6775515 2.9200933 0
8.9591074 -2.7053132 2.8838792 0
-9.0427523 -2.5287943 2.8846962 0
8.9566936 -2.5015304 2.8972671 0
-9.0357609 -2.3233633 2.9000857 0
8.9568748 -2.3212094 2.9275513 0
-9.0348406 -2.1172764 2.9128854 0
8.9525881 -2.1289849 2.9182069 0
-9.0388269 -1.9221381 2.9254434 0
8.9561758 -1.8720005 2.8854327 0
-9.0355272 -1.7037665 2.9092145 0
8.9562674 -1.7108006 2.8756759 0
-9.0312338 -1.4890836 2.8981876 0
8.9600611 -1.4928542 2.8986826 0
-9.0289574 -1.2928902 2.8900971 0
8.9589329 -1.2962878 2.898541 0
-9.024229 -1.0882733 2.8829989 0
8.9564285 -1.1023214 2.8880124 0
-9.0292768 -0.91110826 2.9130573 0
8.9550562 -0.89975077 2.9093757 0
-9.0288076 -0.7304821 2.9289207 0
8.9530344 -0.70422429 2.8914378 0
-9.0222015 -0.51931953 2.8796215 0
8.9555225 -0.49893355 2.9019032 0
-9.0236559 -0.27851582 2.8399756 0
8.9548359 -0.30380151 2.9126134 0
-9.0239429 -0.057686806 2.8710375 0
8.9657106 -0.092257887 2.8905165 0
-9.0130072 0.11289231 2.84694 0
8.9578295 0.10904989 2.9085619 0
-9.0223103 0.28837633 2.8984189 0
-8.9982414 0.29722548 2.8578873 0
8.9594069 0.31132647 2.9178393 0
-9.0290852 0.45787454 2.8775923 0
8.9543152 0.49117237 2.9229884 0
-9.0201454 0.67715716 2.804244 0
8.9603176 0.68016887 2.8919966 0
-9.0443506 0.86390924 2.9285436 0
8.9540434 0.89336693 2.895726 0
-9.0276194 1.1053249 2.8728178 0
8.9612846 1.1111115 2.9007843 0
-9.023901 1.3285667 2.871176 0
8.9634695 1.3034885 2.8821883 0
-9.0249987 1.5158632 2.8723903 0
8.9682169 1.5162448 2.8941796 0
-9.0196943 1.7096254 2.8650849 0
8.9706421 1.7049445 2.8712153 0
-9.0209618 1.9231864 2.8735731 0
8.9667749 1.8807901 2.8920352 0
-9.0179968 2.1063161 2.8689461 0
8.9690228 2.1001203 2.8912108 0
-9.0160694 2.3015916 2.8797898 0
8.9715157 2.3239708 2.9040182 0
-9.0188894 2.4804952 2.884443 0
-8.9956598 2.5994895 2.9881732 0
8.970192 2.5225985 2.9049115 0
-9.0162029 2.6817412 2.8769219 0
8.9740744 2.7124603 2.896409 0
-9.0187016 2.8965027 2.8873475 0
8.972847 2.8903787 2.9080667 0
9.0005188 2.9095304 2.9187074 0
-9.0186787 3.0968416 2.8890619 0
8.9698648 3.0875552 2.8957374 0
-9.0128107 3.3003013 2.8898344 0
8.9746513 3.3001733 2.896981 0
9.0036688 3.309149 2.9554405 0
-9.0167904 3.5111034 2.8940096 0
8.9748507 3.5049655 2.8972962 0
9.0035791 3.4878242 2.87449 0
-9.0181932 3.6960678 2.8982334 0
8.9761181 3.7034006 2.9012918 0
-9.0169287 3.8984733 2.9004917 0
-8.9945812 3.9303613 2.8923631 0
8.979332 3.9103045 2.8845236 0
9.0019798 3.9205976 2.9194975 0
-9.0147038 4.0910082 2.9077728 0
-8.9946575 4.1144533 2.9223065 0
8.9771471 4.090157 2.9047294 0
9.0018644 4.1947975 2.8179703 0
-9.0180626 4.3001094 2.9107349 0
-8.9954729 4.2970896 2.9063282 0
8.9770031 4.3026114 2.8865104 0
9.0077295 4.3883352 2.8278725 0
-9.0124283 4.5147157 2.9174807 0
-8.9934883 4.5622044 2.9035511 0
8.9821234 4.5034356 2.8812902 0
9.00632 4.5025826 2.8764687 0
-9.0131655 4.7028513 2.9365587 0
-8.994463 4.7495618 2.8943629 0
8.9786987 4.6970062 2.905355 0
9.0052929 4.6901722 2.8797104 0
-9.0113802 4.9046469 2.9204443 0
-8.9953184 4.8950577 2.9216423 0
8.9839735 4.907093 2.8878453 0
9.0095291 4.8741083 2.8632748 0
-9.0123653 5.0831327 2.9092631 0
-8.9919043 5.0955234 2.8986676 0
8.9812651 5.097147 2.8916025 0
9.0059175 5.074616 2.8761594 0
-9.0114546 5.2763433 2.9254487 0
-8.9926634 5.2979503 2.8995361 0
8.9841166 5.2860422 2.8851671 0
9.0061913 5.2697673 2.8466992 0
-9.0099831 5.4851022 2.9113622 0
-8.9880686 5.5018363 2.8679357 0
8.9854393 5.4893799 2.8839202 0
9.008069 5.5190272 2.8772457 0
-9.0097027 5.6718388 2.8958998 0
-8.9922152 5.7036414 2.8840148 0
8.9860392 5.6992879 2.9006243 0
9.0097771 5.715436 2.9018497 0
-9.0065603 5.900918 2.902528 0
-8.9861145 5.9156775 2.8935487 0
8.9864712 5.8823833 2.9121435 0
9.0091963 5.9179726 2.8586764 0
-9.0105991 6.1045718 2.8739963 0
-8.9888783 6.1305017 2.905731 0
8.9875145 6.0874238 2.9095221 0
9.0078955 6.068244 2.8912847 0
-9.0151224 6.309443 2.895143 0
-8.9873972 6.3091626 2.913126 0
8.99014 6.3081236 2.8947587 0
9.0075312 6.3053117 2.8943107 0
-9.0049639 6.5132542 2.9150965 0
-8.9871864 6.5022593 2.9107103 0
8.987277 6.5139036 2.9168096 0
9.0058832 6.5112166 2.9014795 0
-9.0060568 6.7443528 2.9308329 0
-8.9845562 6.7302923 2.9263153 0
8.9914579 6.6982455 2.906162 0
9.0078678 6.6767678 2.8943202 0
-9.0204926 6.9386506 2.9054894 0
-8.9852934 6.9091077 2.9072511 0
8.9898462 6.8935313 2.9190125 0
9.0116091 6.9157195 2.9144135 0
-9.0157404 7.0951052 2.8754048 0
-8.9836178 7.1144338 2.9264669 0
8.9901438 7.1095777 2.9117033 0
9.0126953 7.1051807 2.9076962 0
-9.0027075 7.2562923 2.8568501 0
-8.9847326 7.2865052 2.9115503 0
8.9911671 7.3060317 2.8928521 0
9.0140114 7.2903533 2.9179323 0
-9.0233765 7.4694028 2.8780801 0
-8.9863129 7.4878693 2.9061892 0
8.9857302 7.4892864 2.9105999 0
9.0153332 7.5090861 2.9194109 0
-9.0067301 7.7024598 2.8374527 0
-8.9857264 7.7049847 2.8801489 0
8.9900455 7.7066941 2.8983259 0
9.0134392 7.7201691 2.9196517 0
-9.0069208 7.8655238 2.8590991 0
-8.9859219 7.8902764 2.9032876 0
8.9915066 7.9040022 2.9059386 0
9.0133934 7.9270649 2.8996623 0
-9.0064974 8.0841208 2.8834178 0
-8.9844522 8.1139336 2.8805344 0
8.9926167 8.1259556 2.9027765 0
9.0155535 8.1385622 2.9046578 0
-9.0070601 8.2963009 2.8871839 0
-8.9809761 8.3132257 2.886153 0
8.9841185 8.30198 2.8680124 0
9.016923 8.2923136 2.932514 0
-9.0206213 8.4495401 2.9219501 0
-8.9817543 8.5185385 2.889703 0
8.9842167 8.478919 2.91309 0
9.0180769 8.4922485 2.8649399 0
-9.0258207 8.6982937 2.9144943 0
-8.9809971 8.7088203 2.9208434 0
8.9805403 8.687912 2.9010382 0
9.017808 8.6816111 2.8700433 0
-9.0046778 8.9561319 2.8570735 0
-8.9668331 8.9254036 2.9227734 0
-8.7034683 8.9776936 2.9153712 0
-8.4857864 8.9788895 2.9154899 0
-8.2757444 8.9754353 2.9273064 0
-8.0669899 8.9711857 2.9177916 0
-7.8509312 8.9771595 2.9205163 0
-7.6545072 8.9724226 2.9458659 0
-7.476953 8.983674 2.9004929 0
-7.2756033 8.9762497 2.914968 0
-7.052681 8.9798317 2.9196036 0
-6.9099288 8.9937105 2.8645625 0
-6.707582 8.9790106 2.890584 0
-6.4840789 8.9773445 2.8305781 0
-6.3258657 8.9702606 2.8253033 0
-6.1031404 8.9704866 2.8355668 0
-5.9000611 8.9622335 2.8428276 0
-5.6693649 8.9657488 2.841403 0
-5.4854536 8.9692707 2.8558218 0
-5.2691979 8.9687004 2.8707438 0
-5.0735826 8.9645243 2.868691 0
-4.8595219 8.966361 2.8931711 0
-4.6849718 8.9529457 2.893158 0
-4.4986954 8.9699821 2.9197569 0
-4.3007126 8.9670944 2.8952913 0
-4.1222081 8.9573736 2.9138324 0
-3.9109869 8.9629765 2.9416296 0
-3.6649208 8.9593391 2.9648316 0
-3.5242341 8.9593201 2.8894353 0
-3.3030643 8.9689817 2.8830359 0
-3.0596757 8.9629278 2.8374138 0
-2.8900886 8.9838095 2.9280434 0
-2.6851087 8.9706945 2.8970814 0
-2.4720676 8.9846945 2.9073894 0
-2.2508812 8.9915724 2.9150085 0
-2.0325022 8.9777031 2.8562114 0
-1.9225464 8.9892063 2.8431709 0
-1.6988686 8.9844656 2.866801 0
-1.4847355 8.9889612 2.8708708 0
-1.2723318 8.9874773 2.8123653 0
-1.1959773 8.9807034 2.8578939 0
-0.85972977 8.9901428 2.8335392 0
-0.64588028 8.9836111 2.8342888 0
-0.49682263 8.9908352 2.8419709 0
-0.31575674 8.9879007 2.8517432 0
-0.12665501 8.9811373 2.8306744 0
0.1264322 8.9762201 2.8409302 0
0.30511671 8.9838142 2.835675 0
0.5298835 8.9886274 2.8538954 0
0.67434645 8.989872 2.8413055 0
0.87181491 8.9915857 2.8642092 0
1.0848054 8.9907942 2.8568363 0
1.2950038 8.9864597 2.853194 0
1.4936163 8.9871597 2.8848083 0
1.7086384 8.9890327 2.9062433 0
1.9098033 8.9866829 2.9174619 0
2.1133413 8.9875708 2.876394 0
2.3346736 8.9896965 2.8892376 0
2.5066023 8.9897432 2.9084861 0
2.6847453 8.9921122 2.9211738 0
2.8981502 8.9910727 2.9176817 0
3.1022706 8.9869738 2.8755434 0
3.3103364 8.9909725 2.9107444 0
3.5048585 8.9892998 2.8799372 0
3.721467 8.9859753 2.9027557 0
3.9243276 8.9816723 2.9177082 0
4.1169186 8.9785786 2.8986096 0
4.2981815 8.9732609 2.9020281 0
4.4779468 8.9695721 2.8968718 0
4.6821175 8.9678936 2.9033835 0
4.8737769 8.9762421 2.9056447 0
5.1040564 8.9754028 2.897305 0
5.3060923 8.9712753 2.9052722 0
5.5013838 8.9733667 2.9024868 0
5.6950784 8.9718723 2.8937454 0
5.9058723 8.9727774 2.9081445 0
6.1134686 8.9680853 2.9094949 0
6.3117089 8.9691133 2.896796 0
6.5131049 8.9648418 2.8906398 0
6.7016592 8.9630728 2.8832345 0
6.8936033 8.9653158 2.8993161 0
7.1064873 8.9633131 2.9038906 0
7.312953 8.9613609 2.8968272 0
7.4901481 8.9606943 2.8886173 0
7.6902256 8.960906 2.8761258 0
7.8956795 8.9547377 2.8927221 0
8.1024809 8.9561853 2.8815889 0
8.3101664 8.9568405 2.899801 0
8.4882307 8.9531212 2.9129255 0
8.6941986 8.9531527 2.9127905 0
8.9238539 8.9407015 2.8950183 0
9.0134764 8.905839 2.8935039 0
-8.9134407 9.0401325 2.9184785 0
-8.7007494 9.0427265 2.9323959 0
-8.4899769 9.0448723 2.9073179 0
-8.2772799 9.0420666 2.9082866 0
-8.0842257 9.0431337 2.8758652 0
-7.9089937 9.0375252 2.9027791 0
-7.7073197 9.0375032 2.9104385 0
-7.5000992 9.0356369 2.8953633 0
-7.322041 9.0379477 2.8924804 0
-7.1071434 9.0304222 2.9022417 0
-6.9129829 9.0321989 2.8629289 0
-6.7018161 9.0283756 2.8753395 0
-6.5289464 9.0332823 2.9008315 0
-6.3055849 9.0295153 2.9008594 0
-6.1121097 9.0304928 2.8998179 0
-5.8886113 9.0251608 2.9042723 0
-5.7195687 9.028307 2.9270411 0
-5.5006495 9.0282173 2.9177084 0
-5.3091726 9.0266256 2.9275692 0
-5.0596023 9.0258474 2.8873529 0
-4.9069242 9.0266342 2.9266539 0
-4.7146187 9.0209064 2.8951459 0
-4.5069876 9.0298843 2.8879218 0
-4.2864738 9.0193624 2.9329472 0
-4.0793729 9.0203791 2.8831246 0
-3.8904903 9.0229912 2.8849294 0
-3.7041237 9.0174475 2.8904364 0
-3.4733322 9.0164623 2.8746064 0
-3.2922611 9.0135336 2.8925412 0
-3.0965359 9.0112476 2.8902335 0
-2.8799114 9.0203371 2.8961635 0
-2.6915104 9.007019 2.9194722 0
-2.4896655 9.0162477 2.9251256 0
-2.2460287 9.0103788 2.8813775 0
-2.0312653 9.0057287 2.8804011 0
-1.9229981 9.0073824 2.8508878 0
-1.6898917 9.0115461 2.8399508 0
-1.5542539 9.0044165 2.832907 0
-1.2863331 9.0020752 2.8376598 0
-1.0839158 9.0083466 2.8442497 0
-0.91704571 9.0104313 2.8669395 0
-0.68173718 9.0101385 2.8711326 0
-0.096461535 9.0060596 2.8190272 0
0.072887495 9.0075569 2.8354988 0
0.31885868 9.0053463 2.8504989 0
0.51860589 9.0090914 2.837163 0
0.71955734 9.0083494 2.8725238 0
0.90986842 9.0091724 2.8940604 0
1.0739629 9.0073843 2.9302294 0
1.2888904 9.0075169 2.899615 0
1.5236012 9.0047417 2.908742 0
1.7544765 9.0092964 2.9262021 0
1.8320806 9.008997 2.822505 0
2.1687765 9.0076847 2.9105575 0
2.2848523 9.0147295 2.8719304 0
2.4492309 9.0247717 2.9034331 0
2.6966753 9.0112886 2.8620777 0
2.9733753 9.0054321 2.9046814 0
3.0864918 9.0092869 2.9103336 0
3.2631307 9.0067205 2.8504882 0
3.4598136 9.0129223 2.8048434 0
3.7886171 9.0219564 2.8666542 0
3.8580384 9.0155888 2.8882537 0
4.0445991 9.0154057 2.9276021 0
4.3594298 9.0009079 2.991565 0
4.5125933 9.0083141 2.9020855 0
4.6472397 9.0011177 2.8148189 0
5.4886913 9.0000572 2.8051293 0
5.7700114 9.0111141 2.8369803 0
6.2728205 9.0067348 2.8804812 0
-5.1379175 -9.0050735 3.160948 0
-4.3947039 -9.0080585 3.0940838 0
-4.0540257 -9.0017529 3.0766571 0
-3.8681459 -9.0080662 3.1378262 0
-3.723587 -9.0060329 3.047581 0
-3.5684302 -9.0033102 3.0716422 0
-3.3222146 -9.0045662 3.0618489 0
-3.1263275 -9.0072727 3.0482121 0
-2.9011884 -9.0119534 3.055088 0
-2.675411 -9.003047 3.0542924 0
-2.2915306 -9.0039606 3.0578284 0
-2.1017489 -9.0024319 3.0281377 0
-1.929768 -9.0053272 3.0240388 0
-1.7007096 -9.0026779 3.0105276 0
-1.531408 -9.0061674 3.0608106 0
-1.3072107 -9.0020733 3.0120616 0
