# .PCD v0.7 - Point Cloud Data file format
VERSION 0.7
FIELDS x y z intensity roll pitch yaw time
SIZE 4 4 4 4 4 4 4 8
TYPE F F F F F F F F
COUNT 1 1 1 1 1 1 1 1
WIDTH 280
HEIGHT 1
VIEWPOINT 0 0 0 1 0 0 0
POINTS 280
DATA ascii
-3.0435749e-05 2.048729e-05 -0.00036865994 0 -7.0226961e-05 0.00051185273 3.130983e-11 20.502
1.0100137 0.0051336675 0.0083857113 1 0.0013806904 -0.0092637287 0.0031720907 36.702
2.0792303 0.0011420015 0.0088511966 2 0.0014658398 -0.0061821854 0.01209131 38.302
2.4594195 0.14788677 0.015390669 3 -0.0010840409 -0.0078206128 0.31690082 38.902
3.4771938 0.50613129 0.032136507 4 -0.002072138 -0.0096810525 0.33400148 40.502
4.4950557 0.87507808 0.037630469 5 -0.0022216574 -0.0091243088 0.3358213 42.102
5.5066199 1.2092818 0.052587081 6 -0.0064012925 -0.009232494 0.33440337 43.703
5.9719434 1.4818304 0.064286344 7 -0.0067602778 -0.0080588376 0.58324659 44.502
6.1377325 1.7041353 0.069070406 8 -0.0066447426 -0.0084830308 0.80652612 44.902
6.2527671 1.9529749 0.073344462 9 -0.007193848 -0.0087608593 1.0292225 45.302
6.884707 2.818249 0.072069667 10 -0.0067142961 -0.0059299245 1.0193411 46.902
7.4433565 3.7293701 0.077731699 11 -0.0070306929 -0.0072561321 1.0201998 48.502
7.9947453 4.648838 0.091110989 12 -0.0090420218 -0.0071698544 1.0756062 50.102
8.0393066 4.9144697 0.089930058 13 -0.0098183565 -0.0042697135 1.2937685 50.502
8.0826159 5.4482818 0.086600542 14 -0.0098330937 -0.0022923362 1.5353887 51.302
8.0347738 6.5132179 0.073548838 15 -0.010071202 0.00022705141 1.5980952 52.902
7.8867731 7.3089166 0.06259761 16 -0.007754894 0.0010194164 1.8834895 54.102
7.7278118 7.5268383 0.055904791 17 -0.0063554212 0.0028711762 2.1051543 54.502
7.5138693 7.7043605 0.051406372 18 -0.0045553637 0.0044436413 2.3280454 54.903
7.2711277 7.8282466 0.043105688 19 -0.0018830952 0.0063183447 2.5515094 55.303
7.0036306 7.8991847 0.033525493 20 -0.00041895726 0.0060294578 2.7743864 55.702
6.7322359 7.9076452 0.024072761 21 0.0020818945 0.0063530952 2.9967649 56.102
6.4606304 7.8549514 0.014725219 22 0.0038512251 0.0048440695 -3.0654402 56.502
6.210135 7.7451696 0.0057579312 23 0.0052966527 0.0031377792 -2.843488 56.902
5.9880118 7.5831666 -0.0024359594 24 0.0058900788 0.00088597473 -2.6208327 57.303
5.8091497 7.3791146 0.02808731 25 0.004172015 0.0035222399 -2.3975575 57.703
5.6802182 7.1389213 0.031590324 26 0.0046522324 0.0032938956 -2.174226 58.102
5.1645164 6.5309458 0.035951294 27 0.00385495 0.0051851575 -2.4626288 59.302
4.9066987 6.4380851 0.032502159 28 0.0030590498 0.0050542005 -2.6850903 59.702
4.6327462 6.4044757 0.027443567 29 0.0017687368 0.0049355058 -2.9072134 60.102
4.3620491 6.4307165 0.029540135 30 -0.0011926756 0.0064087142 -3.1283741 60.502
3.2958245 6.5500641 0.014089474 31 0.0013102235 0.0083215982 3.0499415 62.102
2.2269819 6.654767 0.0078283474 32 -0.0060492656 0.0033403314 3.0490208 63.703
1.1603074 6.7508531 -0.0019669491 33 -0.004056924 0.0072232466 3.0493054 65.302
0.095111705 6.8481007 -0.0054638395 34 -0.0049436428 0.0097978124 3.0485063 66.902
-0.9735496 6.9512081 -0.017854648 35 -0.0061695739 0.0089303423 3.0489326 68.503
-2.0502539 7.0477319 -0.04407661 36 -0.002812874 0.0047320365 3.0487063 70.102
-3.1110866 7.1480498 -0.068465114 37 -0.0033008894 0.0060558864 3.0485239 71.702
-4.174561 7.2435379 -0.096334636 38 0.0084511274 0.008170763 3.047713 73.302
-5.2372303 7.3397498 -0.13940182 39 0.0093341609 0.0084396154 3.046957 74.902
-6.2949796 7.4347634 -0.18952449 40 0.01117288 0.012368096 3.0476961 76.502
-7.0821795 7.3753386 -0.23360026 41 0.016558183 0.01575142 -2.9308908 77.703
-7.8305612 7.0644279 -0.28026676 42 0.024942875 0.0097773541 -2.6858273 78.902
-8.0188274 6.8725591 -0.29221451 43 0.028544327 0.0060405666 -2.4628584 79.302
-8.1578312 6.6457386 -0.3077819 44 0.032112088 0.0013469903 -2.2398398 79.702
-8.2467489 6.379519 -0.31814936 45 0.034454759 -0.0050671403 -2.0165279 80.102
-8.2728252 6.1069646 -0.33106494 46 0.034632083 -0.013002931 -1.7948979 80.502
-8.3355236 5.3002472 -0.36513224 47 0.028857052 -0.020996993 -1.5100335 81.703
-8.2387962 5.0475492 -0.37295187 48 0.025033882 -0.026265886 -1.2882488 82.103
-7.8943863 4.4646215 -0.39062735 49 0.020123897 -0.037030514 -0.98078889 83.103
-7.6927729 4.3116407 -0.27747869 50 0.012233064 -0.030696031 -0.7578721 83.503
-7.448853 4.2028632 -0.22204395 51 0.0027177853 -0.02461179 -0.534899 83.904
-7.1841941 4.1497369 -0.19877468 52 -0.0028064542 -0.020816755 -0.31209543 84.303
-6.9127374 4.1544242 -0.19433023 53 -0.0084576663 -0.019020822 -0.090166822 84.703
-6.6479278 4.2184839 -0.19754551 54 -0.012668371 -0.017755732 0.13156724 85.103
-6.4022775 4.3410916 -0.18950304 55 -0.015728757 -0.015702564 0.35327855 85.503
-6.1916957 4.5133705 -0.18351902 56 -0.01853274 -0.012860698 0.5765633 85.903
-6.0211649 4.7309985 -0.17468148 57 -0.020969121 -0.0099243242 0.79992592 86.304
-5.904695 4.9813638 -0.16478369 58 -0.02164663 -0.0058518397 1.0229856 86.703
-5.849134 5.2489419 -0.15881354 59 -0.020235278 0.00014250225 1.2455881 87.104
-5.5526371 5.8519011 -0.15136681 60 -0.018189454 -0.0051324749 0.97655183 88.103
-5.3325152 6.0163188 -0.15319774 61 -0.017634703 -0.0094797257 0.75450891 88.503
-4.5716357 6.5500445 -0.12485144 62 -0.012320277 -0.01416701 0.44928312 89.903
-3.5330873 6.8245955 -0.11495402 63 -0.0076851295 -0.014305215 0.28483129 91.504
-2.5030766 7.1219172 -0.12161686 64 -0.01408782 -0.014504654 0.28447381 93.103
-1.5877695 7.2720885 -0.11202963 65 -0.0097308438 -0.018971287 0.017667629 94.503
-1.3274403 7.1870208 -0.10476631 66 -0.0040861792 -0.020822641 -0.20409629 94.903
-1.0933263 7.0491347 -0.067480251 67 0.0044088443 -0.018810477 -0.42590654 95.303
-0.89596397 6.861084 -0.055430789 68 0.0095228618 -0.016877558 -0.64817488 95.703
-0.74161035 6.6329355 -0.051331323 69 0.012944184 -0.014071343 -0.87033796 96.104
-0.16104807 5.7352133 -0.036372639 70 0.011890724 -0.010919865 -1.0656492 97.703
0.35438889 4.7963681 -0.022539694 71 0.010512374 -0.0098177511 -1.0665627 99.303
0.953309 3.9123406 -0.0072356295 72 0.0069713653 -0.0090395464 -0.8792696 100.903
1.6345133 3.0865905 -0.0029173323 73 0.0067854072 -0.0093094409 -0.87832373 102.503
2.270565 2.2276702 0.0095261345 74 0.0080896504 -0.010005878 -1.03914 104.103
2.3245456 1.9639418 0.0098221349 75 0.009997 -0.0070421328 -1.2607479 104.504
2.3194792 1.6890061 0.01582008 76 0.012436118 -0.0044224123 -1.482372 104.903
2.252177 1.4225179 0.014491508 77 0.012718027 -0.003561137 -1.7032226 105.303
2.1287122 1.1774608 0.015861489 78 0.012803172 -0.0010808298 -1.9244152 105.703
1.8083204 0.58610719 0.0072621838 79 0.013433657 0.0038250852 -2.1314249 106.703
1.5945064 0.4158597 0.0068309 80 0.011153261 0.0053640599 -2.3530397 107.103
1.3458098 0.29565516 0.0057312944 81 0.0093236314 0.0075079114 -2.57583 107.503
1.0815558 0.23135018 0.0048773419 82 0.0082307393 0.0096169524 -2.7978148 107.903
0.8050403 0.22821 0.0019113654 83 0.0054509612 0.010269275 -3.0194969 108.303
0.5380761 0.28504375 -0.0059683914 84 0.0031219567 0.011611046 3.0424757 108.703
0.28677148 0.40154326 -0.010057043 85 0.00011239392 0.010483289 2.8205991 109.103
0.068261772 0.56726032 -0.016492808 86 -0.0022404769 0.012434612 2.5983307 109.503
-0.10252555 0.77675217 -0.017984755 87 -0.0056136581 0.014307306 2.3760831 109.903
-0.22825228 1.0217705 -0.023003096 88 -0.0084468396 0.012912496 2.1535747 110.303
-0.7371223 1.9687004 -0.03318407 89 -0.009176936 0.010270053 2.0790267 111.903
-1.3476847 2.8394072 -0.054446191 90 -0.0079002446 0.015643302 2.3499496 113.503
-1.5935603 2.9590514 -0.065151997 91 -0.0043160403 0.017834982 2.5729926 113.903
-1.8607484 3.0221944 -0.061224822 92 -0.0010798614 0.015957484 2.7962492 114.303
-2.1366291 3.026232 -0.061858024 93 0.0019329112 0.015231138 3.0181518 114.704
-2.4041865 2.9674234 -0.063098438 94 0.0052745445 0.014321207 -3.0433724 115.103
-2.6517498 2.8546593 -0.070362456 95 0.0084980298 0.013091833 -2.8256271 115.503
-3.1207657 2.5912755 -0.082655594 96 0.013594844 0.010206779 -2.5846889 116.303
-3.2993109 2.3924813 -0.080688141 97 0.046438389 0.0054095411 -2.3427129 116.703
-3.4153407 2.1552269 -0.072246201 98 0.08744482 -0.0005498961 -2.0614517 117.104
-3.4640849 1.877148 -0.073855393 99 0.087662227 -0.0033671972 -1.8403867 117.503
-3.3927166 1.596806 -0.077802889 100 0.0081717167 -0.0054385983 -1.5973784 117.903
-3.482801 0.93091297 -0.075131878 101 0.015258501 -0.0016898609 -1.8348312 118.903
-3.6793833 -0.11188728 -0.067233942 102 0.014193285 -0.0025983255 -1.7246567 120.503
-3.8448484 -1.1696175 -0.06053856 103 0.013295814 -0.0024303359 -1.7243954 122.103
-4.0583277 -2.2280724 -0.06431976 104 0.014874762 -0.0028218173 -1.8683032 123.704
-4.2189074 -2.4478149 -0.057054043 105 0.013671677 0.0018859106 -2.0892015 124.103
-4.4243145 -2.6264832 -0.0607008 106 0.012388756 0.0055168229 -2.3116119 124.503
-4.6630735 -2.7571754 -0.06606438 107 0.0122735 0.0080954386 -2.5342751 124.904
-4.9270644 -2.8316288 -0.072922386 108 0.010285608 0.010842263 -2.7561677 125.303
-5.2720819 -3.053299 -0.0790001 109 0.012970973 0.0087057026 -2.5483909 125.903
-5.6325779 -3.210324 -0.087425664 110 0.010280319 0.011281622 -2.7526927 126.503
-5.9038115 -3.2274482 -0.094134532 111 0.007801678 0.0130534 -2.9742653 126.903
-6.1718326 -3.1841512 -0.096344739 112 0.0053001228 0.014755256 3.0875483 127.303
-6.4226475 -3.0816267 -0.10314209 113 0.0028482114 0.015929056 2.865865 127.703
-6.6472907 -2.9224341 -0.10946257 114 -0.00050794816 0.01569687 2.6439748 128.103
-6.8324418 -2.7225904 -0.11829261 115 -0.0041238745 0.014722451 2.4214544 128.503
-6.9678836 -2.4858532 -0.12369278 116 -0.0068741264 0.013784818 2.1986749 128.903
-7.3942714 -1.6644045 -0.13783826 117 -0.0091392957 0.014298899 1.9390112 130.303
-7.5558724 -0.59448111 -0.17141996 118 -0.014532019 0.011801528 1.7503389 131.903
-7.7419534 0.46675056 -0.21490321 119 -0.020945501 0.011123103 1.7496988 133.503
-7.7347102 0.99988419 -0.22973281 120 -0.024671612 0.005486493 1.5053948 134.303
-7.6275911 1.2509646 -0.23493537 121 -0.025612347 0.001284886 1.2842195 134.703
-7.4765921 1.4786365 -0.16991794 122 -0.015876491 -0.0016015236 1.0627238 135.103
-7.2729697 1.659752 -0.16529936 123 -0.015502863 -0.0039589414 0.84088027 135.503
-7.0342278 1.7932904 -0.16023034 124 -0.013958712 -0.0078759855 0.61875516 135.903
-6.770412 1.8704479 -0.15960258 125 -0.012607808 -0.010324995 0.39646095 136.303
-5.7257543 2.113791 -0.15239334 126 -0.0089000138 -0.012071206 0.25373557 137.903
-5.3250389 2.135071 -0.13878947 127 -0.0058922824 -0.013102307 0.053282291 138.503
-5.0642734 2.0623815 -0.12690869 128 -0.0026544807 -0.013093594 -0.16879027 138.903
-4.8260484 1.9290862 -0.1226335 129 0.00061578804 -0.012926155 -0.39059514 139.303
-4.3894548 1.6075119 -0.1141944 130 0.0041278587 -0.012783985 -0.61828941 140.103
-4.231143 1.3851373 -0.10518393 131 0.0065066898 -0.010914926 -0.83488196 140.503
-4.1260629 1.1349672 -0.098905817 132 0.0079468889 -0.0077552171 -1.0572803 140.903
-4.0752916 0.86254686 -0.1032135 133 0.010725247 -0.0074297255 -1.2792969 141.303
-4.0873446 0.58818936 -0.10587024 134 0.012069261 -0.0053131087 -1.5005188 141.703
-4.1448731 -0.48752981 -0.090719044 135 0.011328815 -0.0019465502 -1.6591908 143.303
-4.1794081 -1.5612093 -0.088394895 136 0.010848207 -0.005120887 -1.5000783 144.903
-3.9293082 -2.6078498 -0.075661339 137 0.0079545518 -0.0047988445 -1.2840538 146.503
-3.7693379 -2.8293173 -0.079570033 138 0.0073587075 -0.0067983265 -1.0631713 146.903
-3.5653703 -3.0130658 -0.073261805 139 0.0050110798 -0.008745647 -0.84025753 147.303
-3.3257322 -3.1458313 -0.064218953 140 0.0025163866 -0.0097541604 -0.61665028 147.703
-3.0636616 -3.2234385 -0.063015006 141 -0.00019892128 -0.010103417 -0.3941721 148.103
-2.7884045 -3.238399 -0.056253634 142 -0.0023937167 -0.010238134 -0.171736 148.503
-2.5186803 -3.194551 -0.049928736 143 -0.0045955651 -0.0091442745 0.049566165 148.903
-2.2648211 -3.0923834 -0.04830391 144 -0.0056298799 -0.0075049065 0.27148083 149.303
-2.0400019 -2.9362261 -0.039936785 145 -0.0067510377 -0.0063231229 0.49387637 149.703
-1.8544174 -2.7355816 -0.041515719 146 -0.0089237569 -0.0046886066 0.71741438 150.104
-1.1248609 -1.9481658 -0.030988125 147 -0.0095186932 -0.0042643244 0.80497003 151.703
-0.9180373 -1.6030606 -0.027644688 148 -0.010272477 -0.0023060325 1.0332065 152.303
-0.43416291 -0.80602109 -0.026131976 149 -0.0082231136 -0.0055078105 0.82141441 153.703
-0.19165227 -0.6751442 -0.020918977 150 -0.0061021475 -0.0070214556 0.59922725 154.103
0.81050819 -0.28245321 -0.012453095 151 -0.0048739975 -0.0065211854 0.40267414 155.703
1.7969856 0.13714877 -0.0051926016 152 -0.0055598971 -0.0065775686 0.40233856 157.303
2.7804892 0.5529809 0.0016110744 153 -0.0050932947 -0.0060945535 0.40176442 158.903
3.7703905 0.97416759 0.0055146189 154 -0.0045678671 -0.0056004869 0.40166807 160.503
4.7585664 1.3810577 0.010980046 155 -0.0035382807 -0.0066124196 0.35468084 162.103
5.0315466 1.3894342 0.014103517 156 -0.0018657234 -0.0068163411 0.13603386 162.503
5.2989774 1.3364346 0.011100902 157 -0.00010568053 -0.0066884207 -0.085173942 162.903
6.065443 1.0601344 0.017245919 158 0.0021616498 -0.0062799053 -0.37088621 164.103
6.272346 0.88382685 0.017641796 159 0.0040174602 -0.0054230453 -0.59197104 164.503
6.4353142 0.66294581 0.015672088 160 0.004670891 -0.0044950312 -0.81411374 164.903
6.9170003 0.026043952 -0.00046462752 161 0.0061654462 -0.0017607766 -1.0172948 166.103
6.9770746 -0.23977116 0.013480082 162 0.0075079799 -0.00025900226 -1.2393854 166.503
6.9752588 -0.51760757 0.020105012 163 0.0068677543 -0.0005794164 -1.460907 166.903
6.8576975 -1.5927398 0.036041528 164 0.010447332 0.0026446988 -1.6541266 168.503
6.7209215 -2.1143854 0.013933134 165 0.0068354602 0.0039051729 -1.8749555 169.303
6.5581465 -2.3332593 0.018879449 166 0.005521168 0.0052455608 -2.0965674 169.703
5.8539348 -3.1401784 0.0021048866 167 0.0047849398 0.0069818478 -2.2429352 171.303
5.7269025 -3.5278292 0.00048463614 168 0.007685279 0.0035115115 -1.9331158 171.904
5.4643197 -4.5663114 -0.005131552 169 0.007201835 0.0027589842 -1.8347864 173.503
5.4257646 -5.0970535 -0.0090503003 170 0.0071748318 0.0018935604 -1.5908076 174.303
5.5114503 -5.3590407 -0.007425237 171 0.0071346215 -0.00055116956 -1.3695796 174.703
5.6482439 -5.5982118 -0.00616012 172 0.0067663025 -0.0022811943 -1.148295 175.103
6.0638509 -6.1232357 -0.0018241848 173 0.0057187271 -0.0041898289 -0.85825741 176.103
6.3034239 -6.2600007 0.0004685435 174 0.0046003871 -0.0053810244 -0.63492507 176.503
6.5644379 -6.3411946 0.0044163298 175 0.00332688 -0.0057911896 -0.41200829 176.903
6.8368487 -6.3639126 0.00067399762 176 0.0017053764 -0.0065543381 -0.18904832 177.303
7.1071672 -6.3263617 0.0093302615 177 -0.0017995358 -0.0076434375 0.032108117 177.703
7.3620615 -6.2286 0.0014906405 178 -0.0020181106 -0.0073143258 0.25350389 178.103
7.5931048 -6.0751047 0.001050103 179 -0.0029096156 -0.0062600686 0.47685307 178.503
7.783196 -5.8769999 0.0061324551 180 -0.004841235 -0.0056548361 0.69982803 178.903
7.9213243 -5.6420479 0.0081938049 181 -0.0056345812 -0.0037963609 0.92319846 179.304
8.0067673 -5.3793926 0.0092256414 182 -0.0067015747 -0.0038047426 1.1460713 179.703
8.0305786 -5.1082249 0.0049310187 183 -0.0071795587 -0.0017828635 1.367844 180.103
7.9968333 -4.8351302 -0.00013172501 184 -0.0068683927 -0.0015049177 1.5890472 180.503
7.9008341 -4.5780282 -0.0028380961 185 -0.0065360875 -0.00065859989 1.8101813 180.903
7.7538586 -4.3473353 0.0064425487 186 -0.0074832956 0.0012038903 2.0323834 181.303
7.5582132 -4.156702 0.0078970874 187 -0.0070556086 0.0033373912 2.2553585 181.703
7.3265514 -4.0117965 0.012610866 188 -0.0067103133 0.0047676307 2.4782908 182.103
7.0655322 -3.9246514 0.0095902514 189 -0.0053307689 0.0058470364 2.7007132 182.503
6.7952566 -3.8957434 0.0055677094 190 -0.0039884523 0.0069163279 2.9235828 182.903
6.5213885 -3.9260991 -0.0026871313 191 -0.0035449376 0.0071412968 -3.1383324 183.303
5.4675798 -4.1387053 -0.0047837757 192 -0.0015843015 0.0077736275 -2.969399 184.903
5.0960617 -4.3086529 -0.0072496748 193 0.00013257028 0.0078569977 -2.7198014 185.503
4.1005168 -4.6585388 -0.019260263 194 -0.0026668191 0.0085082408 -2.9547241 187.103
3.0315759 -4.7538085 -0.014260349 195 -0.002962521 0.0092141181 -3.0692716 188.703
1.9634826 -4.8351016 -0.018914301 196 -0.0021658805 0.0081271948 -3.0697587 190.303
1.4413426 -4.9674039 -0.029564988 197 -0.0016943333 0.0084592616 -2.834058 191.103
1.2221568 -5.1298523 -0.024288401 198 0.000345418 0.0075360402 -2.6115305 191.503
1.0439329 -5.3386664 -0.025955031 199 0.0022659856 0.007174361 -2.3885772 191.903
0.91757393 -5.5773025 -0.023495328 200 0.0027250326 0.0063314736 -2.1651964 192.303
0.59009606 -6.301651 -0.015835069 201 0.0071341735 0.006004673 -1.9138356 193.503
0.57520622 -6.5732179 -0.017726829 202 0.0051008551 0.0052794339 -1.6928834 193.903
0.63002819 -6.8386965 -0.026754996 203 0.0042382902 0.0057163867 -1.4716474 194.303
0.74508029 -7.0874648 -0.027707644 204 0.0054638749 0.0045265029 -1.2507207 194.703
0.91014695 -7.3056593 -0.030875711 205 0.0056225676 0.0026406839 -1.0280449 195.103
1.1190817 -7.4803224 -0.0340208 206 0.0060528726 0.0013082222 -0.80492693 195.503
1.6783013 -7.8481421 -0.033479106 207 0.0053658476 0.00067914545 -0.52713788 196.503
1.9483687 -7.8994803 -0.032117914 208 0.0060514272 -0.0023782472 -0.30469304 196.903
3.0040343 -8.0547543 -0.022563566 209 0.0050832289 -0.0024963561 -0.010153295 198.503
4.0768027 -8.0569706 -0.0075416216 210 -0.00075549621 -0.0026033691 -0.00021309103 200.103
4.8717804 -7.9295077 -0.0061025182 211 -0.00058944692 -0.0045923819 0.28687212 201.304
5.0925746 -7.772119 -0.0083140898 212 -0.00052291778 -0.0048860847 0.5093199 201.703
5.2737951 -7.5653644 -0.01795348 213 0.00099330966 -0.0056123021 0.73266125 202.103
5.4060483 -7.3266358 -0.018703995 214 3.4194195e-06 -0.005529088 0.95593822 202.503
5.480804 -7.0632648 -0.021062387 215 -0.000493197 -0.0066075833 1.1787411 202.903
5.4972715 -6.789537 -0.02124832 216 -0.0025765519 -0.0063205855 1.4007792 203.303
5.4516053 -6.5189295 -0.022106539 217 -0.0031637095 -0.0064367778 1.6218224 203.703
5.453238 -5.4437246 -0.012943679 218 -0.0029446571 -0.006611641 1.5501876 205.303
5.6082892 -4.5196304 -0.0068862266 219 0.00086574798 -0.0073600332 1.2453614 206.703
5.7813172 -4.2969365 -0.00033573792 220 0.0020039112 -0.0088148238 1.02466 207.103
5.988472 -4.1230912 -0.006208695 221 0.0052449647 -0.0082319351 0.80171353 207.503
6.2329397 -4.0027614 -0.00082600798 222 0.0047438648 -0.0061101862 0.57977885 207.903
6.4991198 -3.9337561 -0.0044741551 223 0.0065647303 -0.0050603501 0.35735264 208.303
6.772707 -3.9270937 -0.0013211059 224 0.0071422895 -0.003774069 0.13560782 208.703
7.0408211 -3.9819341 0.0031504945 225 0.0083978586 -0.0033369102 -0.085456662 209.103
7.29285 -4.0936942 0.0042795059 226 0.009084275 -0.00076926348 -0.3075231 209.503
7.5133514 -4.2550864 -0.0017928377 227 0.010094341 0.0025507158 -0.52909189 209.903
7.6898761 -4.4625745 -0.0047591859 228 0.0099748624 0.0049426686 -0.75125742 210.303
7.8191857 -4.7036395 -0.0023223723 229 0.0098436074 0.0067220828 -0.97388577 210.703
7.8892813 -4.9688368 -0.0031045913 230 0.0086799208 0.0080645271 -1.1962563 211.104
7.9011488 -5.2447124 0.0012460331 231 0.0084771616 0.0071522011 -1.4176854 211.504
7.853837 -5.5120006 0.0077910274 232 0.0085351625 0.011127106 -1.6384681 211.903
7.7470999 -5.767077 0.015553178 233 0.0071038022 0.011722845 -1.860158 212.303
7.5885081 -5.9909859 0.025655393 234 0.0061456347 0.011807473 -2.0814188 212.703
6.9597111 -6.8597512 0.066480167 235 0.010016917 0.011378428 -2.180984 214.303
6.2616878 -7.6575794 0.061557036 236 0.0083861714 0.0086343419 -2.4494979 215.903
6.0052581 -7.7483439 0.056553509 237 0.0046614301 0.010774141 -2.6714954 216.303
5.3430166 -7.8936291 0.044651266 238 0.0030612741 0.0097792242 -2.9538996 217.303
4.2832723 -8.0533352 0.020813091 239 0.0026926692 0.0091511765 -2.9843121 218.903
3.2073989 -8.0618267 -0.0058203698 240 -0.0051792404 0.0078572491 -3.1391556 220.503
2.1338432 -8.0619783 -0.014674092 241 -0.0066982368 0.00756033 -3.1403046 222.103
1.0675063 -8.0725842 0.0024225661 242 -0.0040189372 0.0068122605 -3.1399777 223.703
-0.0076037389 -8.0786848 0.024247857 243 -0.0021616123 0.0071322555 -3.1409075 225.303
-1.0808537 -8.0739431 -0.027439928 244 -0.0077888141 0.0045319935 -3.1408851 226.903
-1.7461618 -7.9643807 -0.023419155 245 -0.008561085 0.0014243675 2.9159439 227.903
-2.811939 -7.8704681 -0.030980879 246 -0.0091596106 0.0019454361 3.0653636 229.504
-3.8771739 -7.7869167 -0.045544904 247 -0.012900108 0.0016798904 3.0657485 231.104
-4.9473543 -7.7057419 -0.061534517 248 -0.019016659 0.0009556865 3.0656712 232.703
-6.0156088 -7.6194177 -0.082136966 249 -0.01953043 0.0042661387 3.0644572 234.303
-6.5272193 -7.4626789 -0.092395455 250 -0.021818565 0.00095397397 2.7992814 235.103
-7.4976463 -7.0143061 -0.12550727 251 -0.026255134 0.0022016563 2.6998158 236.703
-7.699985 -6.8386149 -0.13111745 252 -0.026580784 -0.001278322 2.4981072 237.103
-7.8515248 -6.612042 -0.13786459 253 -0.027236635 -0.0055835093 2.2760675 237.503
-7.9487662 -6.3602066 -0.14309435 254 -0.027051512 -0.010180931 2.0538588 237.903
-7.9881973 -6.0869431 -0.14776672 255 -0.026337942 -0.014541307 1.8317351 238.303
-7.9668431 -5.8129663 -0.15257615 256 -0.024426371 -0.018911736 1.6103164 238.703
-7.8891563 -5.5499783 -0.15722983 257 -0.020491615 -0.023216389 1.3981373 239.103
-7.8061895 -4.4737792 -0.19391139 258 -0.026242947 -0.024271635 1.5399376 240.703
-7.8937736 -3.3970425 -0.22175401 259 -0.034582227 -0.023773188 1.6660331 242.303
-7.9902558 -2.3366766 -0.23858222 260 -0.036947452 -0.020395197 1.6658732 243.903
-8.0291824 -1.2644395 -0.25103417 261 -0.047950763 -0.018416844 1.5898075 245.503
-8.045619 -0.19390504 -0.26885363 262 -0.063825116 -0.01614601 1.5886674 247.103
-8.0548935 0.87682563 -0.29902005 263 -0.050721236 -0.010235609 1.5873483 248.703
-7.977387 1.4121578 -0.30688506 264 -0.04607654 -0.016717782 1.3823417 249.503
-7.8383341 1.6449405 -0.30669886 265 -0.039061729 -0.024397884 1.1619048 249.903
-7.6564817 1.8440498 -0.3055428 266 -0.030733421 -0.031339221 0.94020742 250.303
-7.4320421 1.995656 -0.303543 267 -0.023058714 -0.031996906 0.71803641 250.703
-7.1782198 2.0922022 -0.30374125 268 -0.019165626 -0.03271383 0.49545079 251.103
-6.9259953 2.1411381 -0.17652562 269 -0.010048026 -0.018754171 0.27659816 251.503
-5.8847027 2.3708024 -0.14341025 270 -0.0052571404 -0.017123461 0.1172821 253.103
-5.6193113 2.309099 -0.13522664 271 -0.0023017856 -0.016003942 -0.10386895 253.503
-5.3706727 2.1946445 -0.12801729 272 0.00067475415 -0.016255837 -0.32579929 253.903
-5.1530032 2.0288186 -0.11155719 273 0.0050700069 -0.014459764 -0.54365283 254.303
-4.3269 1.3521929 -0.092539228 274 0.0058896649 -0.011528335 -0.73682284 255.903
-3.5327547 0.63348049 -0.067677327 275 0.0061397399 -0.011352901 -0.73686624 257.503
-2.8641994 0.20524198 -0.054465786 276 0.0026546901 -0.013044483 -0.43083313 258.703
-2.5915105 0.17969546 -0.051635627 277 -0.00061747519 -0.014163288 -0.20858644 259.103
-2.1844172 0.20890042 -0.049548708 278 -0.0027447185 -0.013363341 -0.0032658509 259.703
-1.1143427 0.20695394 -0.031778671 279 -0.0028256134 -0.011424675 -0.0029645264 261.303
